ply
format ascii 1.0
element vertex 754
comment vertices
property float x
property float y
property float z
end_header
-0.275409102439880371 0.0342980138957500458 2.25951099395751953
-0.296563267707824707 0.0382245145738124847 2.25836873054504395
-0.281471282243728638 -0.00358841847628355026 2.27995848655700684
-0.294046103954315186 0.000560153508558869362 2.2848656177520752
-0.301622211933135986 0.0306236408650875092 2.25386524200439453
-0.280693858861923218 0.0412958115339279175 2.25213623046875
-0.280827343463897705 0.0441373065114021301 2.25142979621887207
-0.28263738751411438 0.0448327548801898956 2.25723743438720703
-0.277332782745361328 0.043963797390460968 2.25147747993469238
-0.275717675685882568 0.0518091358244419098 2.25589585304260254
-0.266799896955490112 0.0479126200079917908 2.25083041191101074
-0.279221594333648682 0.0519759431481361389 2.25584268569946289
-0.273925930261611938 0.051098555326461792 2.25007152557373047
-0.270430594682693481 0.0509301610291004181 2.25010371208190918
-0.266934573650360107 0.0507610104978084564 2.25012755393981934
-0.266573667526245117 0.0377317741513252258 2.25298047065734863
-0.289738744497299194 0.0496131405234336853 2.24408173561096191
-0.261467188596725464 0.0409220382571220398 2.25818061828613281
-0.27405884861946106 0.0539395362138748169 2.24936914443969727
-0.279354453086853027 0.0548192299902439117 2.25513529777526855
-0.270563900470733643 0.0537739209830760956 2.24940180778503418
-0.267068296670913696 0.0536075383424758911 2.24942636489868164
-0.277132511138916016 -0.0311676524579524994 2.27394580841064453
-0.277278631925582886 -0.0282726399600505829 2.27320981025695801
-0.273766815662384033 -0.0285137612372636795 2.27324724197387695
-0.296897411346435547 0.0422649681568145752 2.26935076713562012
-0.281111359596252441 -0.016802055761218071 2.28290009498596191
-0.279375791549682617 0.0563853904604911804 2.24280476570129395
-0.281043261289596558 -0.0242412425577640533 2.28436088562011719
-0.284572720527648926 -0.0240038763731718063 2.28428864479064941
-0.298135578632354736 0.0150030823424458504 2.29373073577880859
-0.294583588838577271 0.0148031571879982948 2.29386734962463379
-0.305024802684783936 0.00510938232764601707 2.29567646980285645
-0.292535543441772461 0.00199412740767002106 2.30296540260314941
-0.308851748704910278 0.011081683449447155 2.29401659965515137
-0.308713585138320923 0.00820056535303592682 2.29476523399353027
-0.310416042804718018 -0.00148320780135691166 2.30292963981628418
-0.297357469797134399 -0.0189004484564065933 2.30121326446533203
-0.297553658485412598 -0.0179638508707284927 2.31335830688476562
-0.301055461168289185 -0.015764167532324791 2.30031704902648926
-0.290245741605758667 -0.0193661898374557495 2.30146455764770508
-0.311915576457977295 -0.00476722652092576027 2.29759597778320312
-0.300157278776168823 0.0185402650386095047 2.29891848564147949
-0.296596407890319824 0.0183439105749130249 2.29906940460205078
-0.300295650959014893 0.0214290712028741837 2.29817032814025879
-0.307413101196289062 0.0218138229101896286 2.29784131050109863
-0.310970038175582886 0.0220051892101764679 2.29766345024108887
-0.298412591218948364 0.020772244781255722 2.29224205017089844
-0.312814414501190186 0.0317797251045703888 2.28936195373535156
-0.314661383628845215 0.025070682168006897 2.29672837257385254
-0.313100755214691162 0.032947879284620285 2.30130195617675781
-0.318349599838256836 0.0281274449080228806 2.29578518867492676
-0.318215370178222656 0.0252576731145381927 2.29653286933898926
-0.314525723457336426 0.0221958830952644348 2.29747724533081055
-0.31645512580871582 0.0228523220866918564 2.30336904525756836
-0.308835029602050781 0.0063639436848461628 2.30754399299621582
-0.308975279331207275 0.0092605268582701683 2.30678439140319824
-0.295527249574661255 -0.0214670635759830475 2.30810403823852539
-0.297407388687133789 -0.0208868011832237244 2.31412625312805176
-0.291813820600509644 -0.0246254075318574905 2.30900216102600098
-0.290099859237670898 -0.0222812574356794357 2.30222177505493164
-0.300981909036636353 -0.0206518601626157761 2.31396961212158203
-0.304700702428817749 -0.0175004620105028152 2.31303501129150391
-0.308272421360015869 -0.0172695610672235489 2.31286025047302246
-0.318603873252868652 0.0338050127029418945 2.30699610710144043
-0.318872541189193726 0.0395601391792297363 2.30548834800720215
-0.318530380725860596 0.0263960864394903183 2.30852079391479492
-0.318394094705581665 0.0235110186040401459 2.30927896499633789
-0.320822179317474365 0.0402500592172145844 2.31139278411865234
-0.324268162250518799 0.037542734295129776 2.31191110610961914
-0.320688039064407349 0.0373683907091617584 2.31215071678161621
-0.320552915334701538 0.0344847142696380615 2.31291031837463379
-0.324401825666427612 0.0404212959110736847 2.31115269660949707
-0.32784685492515564 0.0377163328230381012 2.31166267395019531
-0.32798004150390625 0.0405917800962924957 2.31090378761291504
-0.328112244606018066 0.0434652268886566162 2.31014680862426758
-0.33009001612663269 0.0441608168184757233 2.31603622436523438
-0.331218808889389038 0.0276145618408918381 2.31370425224304199
-0.326446086168289185 0.0485223010182380676 2.31551623344421387
-0.325891882181167603 0.0250224210321903229 2.32090234756469727
-0.31994926929473877 0.0156392734497785568 2.30467438697814941
-0.323512107133865356 0.0158352013677358627 2.3044579029083252
-0.316109299659729004 0.00966778025031089783 2.30639791488647461
-0.312542915344238281 0.00946446880698204041 2.3065955638885498
-0.323375552892684937 0.0129548721015453339 2.30521607398986816
-0.302669823169708252 -0.0305150337517261505 2.32228899002075195
-0.306400686502456665 -0.0273416973650455475 2.3213343620300293
-0.306253492832183838 -0.0302707608789205551 2.32211208343505859
-0.308318644762039185 -0.0267720445990562439 2.3273766040802002
-0.311910003423690796 -0.0265315566211938858 2.32717585563659668
-0.308465242385864258 -0.0238397009670734406 2.32659578323364258
-0.312056154012680054 -0.023602265864610672 2.32639431953430176
-0.313847005367279053 -0.0259600989520549774 2.33322286605834961
-0.313993543386459351 -0.0230254065245389938 2.33243632316589355
-0.317542850971221924 -0.0353288352489471436 2.34772586822509766
-0.315381914377212524 -0.0464041531085968018 2.34396266937255859
-0.311769962310791016 -0.0466649532318115234 2.34418749809265137
-0.319141745567321777 -0.0431930385529994965 2.34292936325073242
-0.321457266807556152 -0.029182780534029007 2.34587502479553223
-0.325073868036270142 -0.0289398785680532455 2.34561371803283691
-0.321310043334960938 -0.032129872590303421 2.34667396545410156
-0.324927091598510742 -0.031883828341960907 2.34641361236572266
-0.317750394344329834 -0.0248109009116888046 2.34537482261657715
-0.330651998519897461 -0.0156557783484458923 2.33590483665466309
-0.314139097929000854 -0.0200928673148155212 2.33165168762207031
-0.3116188645362854 -0.0496241077780723572 2.34498739242553711
-0.326578527688980103 0.0513994283974170685 2.31475663185119629
-0.322092324495315552 0.0144825708121061325 2.32346606254577637
-0.318671196699142456 0.0124622033908963203 2.33675551414489746
-0.378408581018447876 -0.279356688261032104 2.57718467712402344
-0.374330043792724609 -0.283189624547958374 2.57888936996459961
-0.374523818492889404 -0.279894441366195679 2.57782459259033203
-0.370441943407058716 -0.283730745315551758 2.57951784133911133
-0.370246708393096924 -0.287032812833786011 2.58058381080627441
0.0254002027213573456 -0.263935059309005737 2.20604062080383301
-0.267856329679489136 0.0168633479624986649 2.25140261650085449
-0.264227002859115601 0.013799518346786499 2.25211691856384277
-0.267938882112503052 0.0242009293287992477 2.249969482421875
-0.271564900875091553 0.0272459965199232101 2.24924731254577637
-0.275052726268768311 0.027435818687081337 2.24922347068786621
-0.268076449632644653 0.0270555131137371063 2.24926280975341797
-0.278539866209030151 0.0276249758899211884 2.2491912841796875
-0.233180686831474304 0.00930130109190940857 2.20518231391906738
-0.233319833874702454 0.0121352812275290489 2.20450973510742188
-0.229902982711791992 0.0119283217936754227 2.20437264442443848
-0.234963476657867432 0.0127703053876757622 2.21028995513916016
-0.43094182014465332 0.111110612750053406 2.35611939430236816
-0.42947658896446228 0.10900503396987915 2.36323404312133789
-0.42936590313911438 0.106173254549503326 2.36403369903564453
-0.429644614458084106 0.119134761393070221 2.36077404022216797
-0.433276981115341187 0.119192436337471008 2.36012506484985352
-0.42600935697555542 0.11907600611448288 2.36141419410705566
-0.422371238470077515 0.119016185402870178 2.3620450496673584
-0.432032406330108643 0.122768901288509369 2.36566662788391113
-0.441614598035812378 0.123681753873825073 2.36999058723449707
-0.273341089487075806 -0.180623695254325867 2.28201484680175781
-0.190813854336738586 -0.124838352203369141 2.20091056823730469
-0.346785038709640503 0.0312805809080600739 2.3939511775970459
-0.341378271579742432 0.0362823866307735443 2.40018439292907715
-0.43599623441696167 -0.0538403876125812531 2.57323908805847168
-0.242054298520088196 -0.0464351996779441833 2.21714091300964355
-0.237076237797737122 -0.0362091287970542908 2.22067046165466309
-0.233646079897880554 -0.0364563614130020142 2.22054171562194824
-0.240506261587142944 -0.0359622985124588013 2.22079110145568848
-0.237222209572792053 -0.0333445742726325989 2.21997904777526855
-0.240651920437812805 -0.0331002622842788696 2.22009897232055664
-0.242708742618560791 -0.118985891342163086 2.31775736808776855
-0.239144086837768555 -0.119310759007930756 2.31772828102111816
-0.296628624200820923 -0.0552012287080287933 2.32173275947570801
-0.38609921932220459 0.0972731262445449829 2.35404443740844727
-0.384497463703155518 0.0950953811407089233 2.3611905574798584
-0.378574877977371216 0.0913433060050010681 2.35660791397094727
-0.37869638204574585 0.0942119136452674866 2.35581827163696289
-0.378503382205963135 0.0839391276240348816 2.35824203491210938
-0.382025182247161865 0.0811803564429283142 2.35854935646057129
-0.382459193468093872 0.0971763283014297485 2.35454201698303223
-0.374929130077362061 0.0912376046180725098 2.3570866584777832
-0.375051170587539673 0.0941096693277359009 2.35629725456237793
-0.371281087398529053 0.0911309346556663513 2.35755610466003418
-0.378770768642425537 0.101600751280784607 2.35418272018432617
-0.378890573978424072 0.104462742805480957 2.35339713096618652
-0.256540924310684204 -0.139011621475219727 2.3222651481628418
-0.25068742036819458 -0.156413659453392029 2.31980252265930176
-0.250857710838317871 -0.153397738933563232 2.3190147876739502
-0.247132152318954468 -0.156770169734954834 2.31977653503417969
-0.24730275571346283 -0.153751567006111145 2.31898975372314453
-0.243576407432556152 -0.157126665115356445 2.31974196434020996
-0.254242151975631714 -0.156057104468345642 2.31981968879699707
-0.254412144422531128 -0.153043881058692932 2.3190310001373291
-0.250516206026077271 -0.159431874752044678 2.32059168815612793
-0.246960639953613281 -0.159791082143783569 2.32056498527526855
-0.243404597043991089 -0.160150229930877686 2.32052922248840332
-0.243231892585754395 -0.163176119327545166 2.32131838798522949
-0.239848107099533081 -0.160509347915649414 2.32048487663269043
-0.243198379874229431 -0.170888736844062805 2.32275176048278809
-0.241519510746002197 -0.163476631045341492 2.31502199172973633
-0.244570061564445496 -0.176683306694030762 2.33067560195922852
-0.263666272163391113 -0.138326257467269897 2.32223796844482422
-0.258547097444534302 -0.128378719091415405 2.31379604339599609
-0.265775024890899658 -0.132351353764533997 2.31443619728088379
-0.265609800815582275 -0.135342657566070557 2.31521964073181152
-0.262264341115951538 -0.125056430697441101 2.31300687789916992
-0.258712708950042725 -0.125386521220207214 2.31301569938659668
-0.26581534743309021 -0.124726437032222748 2.31298947334289551
-0.25516045093536377 -0.125716716051101685 2.31301569938659668
-0.258877396583557129 -0.122396580874919891 2.31223702430725098
-0.262428730726242065 -0.122069232165813446 2.31222724914550781
-0.265979409217834473 -0.121741987764835358 2.31220889091491699
-0.237257719039916992 -0.180480778217315674 2.33139204978942871
-0.237050279974937439 -0.191300466656684875 2.33362936973571777
-0.226192638278007507 -0.187731459736824036 2.33279538154602051
-0.367474138736724854 -0.295005291700363159 2.56064891815185547
-0.376801759004592896 -0.700585126876831055 2.72372937202453613
-0.363532453775405884 -0.173497170209884644 2.50948309898376465
-0.36335638165473938 -0.176667287945747375 2.51045966148376465
-0.331651777029037476 -0.115341052412986755 2.41717314720153809
-0.411916166543960571 0.0619572177529335022 2.43649530410766602
-0.427358746528625488 0.143773198127746582 2.3677515983581543
-0.431008785963058472 0.143800586462020874 2.36708474159240723
-0.43455156683921814 0.141007930040359497 2.3672022819519043
-0.395906388759613037 0.158900365233421326 2.39557266235351562
-0.398028314113616943 0.15692274272441864 2.40234231948852539
-0.392190635204315186 0.158880934119224548 2.39619803428649902
-0.39749753475189209 0.160885974764823914 2.3882136344909668
-0.410741358995437622 0.158965662121772766 2.39297723770141602
-0.383881241083145142 0.166145011782646179 2.41585206985473633
-0.414657920598983765 0.164691030979156494 2.39069414138793945
-0.414550930261611938 0.161835923790931702 2.39149832725524902
-0.414442867040634155 0.158978894352912903 2.39230489730834961
-0.418355166912078857 0.164695560932159424 2.39001226425170898
-0.421943783760070801 0.161851197481155396 2.39012575149536133
-0.420350849628448486 0.152489617466926575 2.39921140670776367
-0.41664278507232666 0.152470722794532776 2.39991021156311035
-0.42405584454536438 0.152507290244102478 2.39850354194641113
-0.424163401126861572 0.155366048216819763 2.3976891040802002
-0.427864640951156616 0.155378729104995728 2.39697170257568359
-0.427757740020751953 0.15252375602722168 2.39778614044189453
-0.431667923927307129 0.158239424228668213 2.39543247222900391
-0.430069804191589355 0.153401285409927368 2.40362763404846191
-0.430176734924316406 0.156260743737220764 2.40280818939208984
-0.433776676654815674 0.15341438353061676 2.40288305282592773
-0.437585920095443726 0.156278058886528015 2.40130925178527832
-0.433882951736450195 0.156270012259483337 2.40206336975097656
-0.432323336601257324 0.146871030330657959 2.41123843193054199
-0.432214528322219849 0.144000321626663208 2.41206789016723633
-0.431279778480529785 0.142304301261901855 2.39961338043212891
-0.441389501094818115 0.159130886197090149 2.39972829818725586
-0.437690436840057373 0.159127905964851379 2.40049195289611816
-0.441285669803619385 0.156284868717193604 2.40054583549499512
-0.433988124132156372 0.159123688936233521 2.40124607086181641
-0.444982081651687622 0.15629047155380249 2.39977312088012695
-0.445085257291793823 0.159132629632949829 2.39895534515380859
-0.436039507389068604 0.14689125120639801 2.4104762077331543
-0.443567663431167603 0.149785235524177551 2.4080963134765625
-0.445187360048294067 0.161972835659980774 2.39814019203186035
-0.447377175092697144 0.152649253606796265 2.40648055076599121
-0.447273224592208862 0.149797976016998291 2.40730571746826172
-0.447168171405792236 0.146944716572761536 2.40813350677490234
-0.384521156549453735 0.153059393167495728 2.39903736114501953
-0.389862418174743652 0.155100360512733459 2.39104294776916504
-0.375400930643081665 0.150963887572288513 2.40768623352050781
-0.369485914707183838 0.150023296475410461 2.40217852592468262
-0.389777392148971558 0.147665098309516907 2.39275789260864258
-0.369605034589767456 0.152930274605751038 2.4013679027557373
-0.37851792573928833 0.144661873579025269 2.39533042907714844
-0.385950356721878052 0.144743114709854126 2.39416289329528809
-0.365749895572662354 0.149984359741210938 2.40273714065551758
-0.456314235925674438 0.169266372919082642 2.39402341842651367
-0.435931354761123657 0.144024387001991272 2.41130590438842773
-0.440733820199966431 0.148629903793334961 2.42221879959106445
-0.448293983936309814 0.151524141430854797 2.41975498199462891
-0.452244937419891357 0.141611441969871521 2.40168476104736328
-0.449386864900588989 0.160702168941497803 2.43053388595581055
-0.456741601228713989 0.145849138498306274 2.43239927291870117
-0.457067251205444336 0.166417941451072693 2.42712974548339844
-0.453332811594009399 0.16643168032169342 2.42799520492553711
-0.440669804811477661 0.141193181276321411 2.42399096488952637
-0.467220842838287354 0.167419716715812683 2.41125750541687012
-0.478405088186264038 0.170179784297943115 2.40777993202209473
-0.474617362022399902 0.16737993061542511 2.40949892997741699
-0.47831001877784729 0.167358160018920898 2.40860581398010254
-0.470920950174331665 0.167400464415550232 2.41038298606872559
-0.474673032760620117 0.174688130617141724 2.40772843360900879
-0.487007200717926025 0.169221267104148865 2.39944291114807129
-0.469792217016220093 0.178477868437767029 2.41438174247741699
-0.478458642959594727 0.177473559975624084 2.40601181983947754
-0.47602999210357666 0.176581472158432007 2.40036392211914062
-0.486914128065109253 0.166415736079216003 2.40026402473449707
-0.490676730871200562 0.169192880392074585 2.39853143692016602
-0.447449535131454468 0.18319074809551239 2.41859292984008789
-0.467435717582702637 0.184887155890464783 2.40689396858215332
-0.470993697643280029 0.187682554125785828 2.42497825622558594
-0.46753007173538208 0.187709376215934753 2.40607619285583496
-0.474716871976852417 0.187633603811264038 2.42405605316162109
-0.45937347412109375 0.16444765031337738 2.43381643295288086
-0.436826616525650024 0.138283178210258484 2.42563152313232422
-0.43308904767036438 0.138252720236778259 2.42642045021057129
-0.432977646589279175 0.135362148284912109 2.42726469039916992
-0.436715900897979736 0.135396510362625122 2.42647624015808105
-0.440560847520828247 0.138312458992004395 2.42483329772949219
-0.440450787544250488 0.135429710149765015 2.42567801475524902
-0.444291651248931885 0.138340577483177185 2.42402553558349609
-0.428941309452056885 0.122035324573516846 2.43151688575744629
-0.425193935632705688 0.121981494128704071 2.43228554725646973
-0.436364471912384033 0.114650651812553406 2.43172550201416016
-0.442693829536437988 0.121329009532928467 2.43515753746032715
-0.442581146955490112 0.118429772555828094 2.43601512908935547
-0.442467361688613892 0.115528427064418793 2.4368751049041748
-0.440045773983001709 0.107219502329826355 2.43270063400268555
-0.432328224182128906 0.101254262030124664 2.4360039234161377
-0.414276659488677979 0.0994354486465454102 2.45364141464233398
-0.375553876161575317 0.171846702694892883 2.4360194206237793
-0.474810987710952759 0.190468370914459229 2.42322325706481934
-0.477259397506713867 0.191392645239830017 2.42896580696105957
-0.471088528633117676 0.190521359443664551 2.42414569854736328
-0.480892211198806763 0.188500761985778809 2.42885279655456543
-0.46736222505569458 0.190573006868362427 2.42505860328674316
-0.51803898811340332 0.196195870637893677 2.3969879150390625
-0.51693958044052124 0.204357117414474487 2.40168261528015137
-0.510688722133636475 0.200761422514915466 2.39802646636962891
-0.529054522514343262 0.198710352182388306 2.39311003684997559
-0.528975903987884521 0.195956334471702576 2.39392256736755371
-0.510818004608154297 0.210705801844596863 2.39543938636779785
-0.514473497867584229 0.210610091686248779 2.39444494247436523
-0.507158458232879639 0.210800141096115112 2.39642500877380371
-0.503494799137115479 0.210893094539642334 2.39740133285522461
-0.510898351669311523 0.213471144437789917 2.39463257789611816
-0.421581804752349854 0.141386166214942932 2.39519691467285156
-0.414069890975952148 0.138449400663375854 2.39738297462463379
-0.417772114276885986 0.138486921787261963 2.39670276641845703
-0.443175673484802246 0.181374132633209229 2.38731598854064941
-0.445518940687179565 0.182287991046905518 2.39304089546203613
-0.44314846396446228 0.185847505927085876 2.38638162612915039
-0.435779660940170288 0.185908868908882141 2.38788437843322754
-0.444244444370269775 0.190559014678001404 2.39781999588012695
-0.443342357873916626 0.191481903195381165 2.38478779792785645
-0.408106595277786255 0.137551248073577881 2.39215230941772461
-0.48784172534942627 0.15046277642250061 2.43671464920043945
-0.484360694885253906 0.163553446531295776 2.43416714668273926
-0.487987607717514038 0.160686761140823364 2.43404912948608398
-0.491661876440048218 0.1533060222864151 2.43487930297851562
-0.484411358833312988 0.170918747782707214 2.4323585033416748
-0.484314799308776855 0.168074414134025574 2.43320703506469727
-0.499230742454528809 0.163459539413452148 2.43023371696472168
-0.488228350877761841 0.173725411295890808 2.43054318428039551
-0.491563946008682251 0.150458171963691711 2.43573617935180664
-0.356317043304443359 0.13734687864780426 2.41389274597167969
-0.497780859470367432 0.151304319500923157 2.44046926498413086
-0.485288023948669434 0.144761011004447937 2.45208358764648438
-0.546967983245849609 0.202214285731315613 2.43192243576049805
-0.551863372325897217 0.206647634506225586 2.42245888710021973
-0.54704517126083374 0.204994231462478638 2.4310765266418457
-0.554402828216552734 0.204779326915740967 2.42871212959289551
-0.558148324489593506 0.207434922456741333 2.42667388916015625
-0.558101534843444824 0.211838483810424805 2.42567896842956543
-0.558174431324005127 0.214598864316940308 2.42483973503112793
-0.558246195316314697 0.217357397079467773 2.42400312423706055
-0.550726413726806641 0.204887449741363525 2.42989897727966309
-0.554431319236755371 0.211958557367324829 2.42687439918518066
-0.554327070713043213 0.202008038759231567 2.42955780029296875
-0.550649940967559814 0.20211184024810791 2.43074464797973633
-0.569131851196289062 0.207085356116294861 2.42303299903869629
-0.560804426670074463 0.215508624911308289 2.43022966384887695
-0.564475119113922119 0.215379759669303894 2.42900514602661133
-0.560875952243804932 0.218270733952522278 2.42938828468322754
-0.564545929431915283 0.21813751757144928 2.42816400527954102
-0.571960389614105225 0.227734506130218506 2.42301177978515625
-0.392386674880981445 -0.253558963537216187 2.59743833541870117
-0.341216355562210083 -0.149410709738731384 2.45803093910217285
-0.331739127635955811 0.0316594094038009644 2.32503128051757812
-0.331603854894638062 0.0287672169506549835 2.32580351829528809
-0.337205708026885986 0.0296197663992643356 2.33145356178283691
-0.575349211692810059 0.197955191135406494 2.42981076240539551
-0.387524396181106567 -0.349431812763214111 2.65392732620239258
-0.387730062007904053 -0.346020489931106567 2.65277361869812012
-0.387317746877670288 -0.352846652269363403 2.65508365631103516
-0.383548855781555176 -0.350063472986221313 2.65468168258666992
-0.391701787710189819 -0.345392137765884399 2.65200686454772949
-0.391496658325195312 -0.348799586296081543 2.65316200256347656
-0.391905903816223145 -0.341988205909729004 2.65085434913635254
-0.308528006076812744 -0.0163240842521190643 2.32507181167602539
-0.404766559600830078 0.121942371129989624 2.3772284984588623
-0.352433264255523682 0.134348466992378235 2.4152524471282959
-0.348445773124694824 0.123733557760715485 2.41834139823913574
-0.376530498266220093 0.129276365041732788 2.40612196922302246
-0.360467851161956787 -0.180296570062637329 2.49085903167724609
-0.356677919626235962 -0.180711761116981506 2.4913642406463623
-0.358473420143127441 -0.19481872022151947 2.50166964530944824
-0.358652055263519287 -0.191647335886955261 2.50069761276245117
-0.366426974534988403 -0.18762931227684021 2.49867630004882812
-0.362452417612075806 -0.191219061613082886 2.50017786026000977
-0.362629562616348267 -0.188054054975509644 2.4992070198059082
-0.370221942663192749 -0.187204554677009583 2.49813556671142578
-0.370397090911865234 -0.184049502015113831 2.49716520309448242
-0.366077512502670288 -0.21008533239364624 2.50400781631469727
-0.36571800708770752 -0.216444686055183411 2.50596952438354492
-0.36081773042678833 -0.173998564481735229 2.48894143104553223
-0.364430367946624756 -0.176734521985054016 2.48938274383544922
-0.364604294300079346 -0.17359045147895813 2.48842406272888184
-0.356862425804138184 -0.16953355073928833 2.48871803283691406
-0.274282276630401611 0.0640697255730628967 2.2472221851348877
-0.268935233354568481 0.0616469457745552063 2.25381708145141602
-0.532613039016723633 0.195873841643333435 2.3928825855255127
-0.553652107715606689 0.221351966261863708 2.38604307174682617
-0.540573656558990479 0.221082612872123718 2.40298914909362793
-0.36315608024597168 -0.137505903840065002 2.47300553321838379
-0.394607603549957275 -0.226365014910697937 2.54645109176635742
-0.17584480345249176 -0.0907783880829811096 2.16922163963317871
-0.175689980387687683 -0.0936485454440116882 2.16987776756286621
-0.368275076150894165 -0.0254884175956249237 2.41825723648071289
-0.355560153722763062 -0.0181407686322927475 2.4248054027557373
-0.412746727466583252 0.0633040741086006165 2.44945597648620605
-0.226416677236557007 -0.187849357724189758 2.3200833797454834
-0.222867250442504883 -0.188228920102119446 2.31998372077941895
-0.467592477798461914 0.195004135370254517 2.40430545806884766
-0.588961660861968994 0.184208348393440247 2.43498039245605469
-0.320825695991516113 -0.0185760650783777237 2.30612325668334961
-0.263283848762512207 -0.151714920997619629 2.33785843849182129
-0.259700149297714233 -0.152071058750152588 2.3378899097442627
-0.258309930562973022 -0.0753144770860671997 2.28353166580200195
-0.541058361530303955 0.238442510366439819 2.41779303550720215
-0.537381529808044434 0.238593757152557373 2.4189305305480957
-0.546977996826171875 0.245922654867172241 2.40100860595703125
-0.536463916301727295 0.252404481172561646 2.42204117774963379
-0.560629487037658691 0.251806795597076416 2.40123987197875977
-0.555922746658325195 0.257473498582839966 2.40787005424499512
-0.552269220352172852 0.257660031318664551 2.4090421199798584
-0.562254667282104492 0.260974645614624023 2.41117358207702637
-0.566976308822631836 0.262331247329711914 2.40268993377685547
-0.547609627246856689 0.261748850345611572 2.41592288017272949
-0.575922310352325439 0.271086901426315308 2.4101097583770752
-0.575979053974151611 0.273795455694198608 2.40930318832397461
-0.572279512882232666 0.27130579948425293 2.41135621070861816
-0.56857222318649292 0.268804281949996948 2.41340374946594238
-0.57857966423034668 0.272058695554733276 2.4153444766998291
-0.544302046298980713 0.262532353401184082 2.43657612800598145
-0.591433346271514893 0.2480965256690979 2.37893223762512207
-0.595976889133453369 0.249467238783836365 2.37067413330078125
-0.603076696395874023 0.242199674248695374 2.36998510360717773
-0.595907449722290039 0.239904865622520447 2.37323307991027832
-0.59946751594543457 0.239726752042770386 2.37200784683227539
-0.6074981689453125 0.234079271554946899 2.36432027816772461
-0.603902757167816162 0.231602653861045837 2.36633968353271484
-0.444956362247467041 0.119254574179649353 2.4419713020324707
-0.444842547178268433 0.116348601877689362 2.44283676147460938
-0.445127338171005249 0.129652798175811768 2.43931722640991211
-0.274412810802459717 0.0669027939438819885 2.24652457237243652
-0.272628813982009888 0.0661659538745880127 2.24074053764343262
-0.272798985242843628 0.0747869834303855896 2.25091814994812012
-0.276300996541976929 0.0749328583478927612 2.2508695125579834
-0.279687672853469849 0.066280074417591095 2.26469755172729492
-0.286838024854660034 0.0709226056933403015 2.25143170356750488
-0.290464341640472412 0.0738921388983726501 2.25064921379089355
-0.278103351593017578 0.0756881460547447205 2.25668144226074219
-0.272928863763809204 0.0776218846440315247 2.25021982192993164
-0.276430457830429077 0.077764950692653656 2.25017046928405762
-0.269296228885650635 0.0746402591466903687 2.25095844268798828
-0.269426554441452026 0.0774779543280601501 2.25026059150695801
-0.273057788610458374 0.0804549604654312134 2.24952316284179688
-0.278233170509338379 0.0785252898931503296 2.25597810745239258
-0.276558935642242432 0.0805952250957489014 2.24947333335876465
-0.265923559665679932 0.0773331746459007263 2.25029301643371582
-0.278362005949020386 0.0813606008887290955 2.25527644157409668
-0.265792816877365112 0.0744926929473876953 2.25099039077758789
-0.281743258237838745 0.0786664485931396484 2.25590777397155762
-0.281871646642684937 0.0814989283680915833 2.25520563125610352
-0.260406464338302612 0.0721023231744766235 2.25760579109191895
-0.283339828252792358 0.0692781433463096619 2.26390504837036133
-0.290026247501373291 0.0565784014761447906 2.26662087440490723
-0.28650587797164917 0.0564177259802818298 2.26671719551086426
-0.285252511501312256 0.078806750476360321 2.255828857421875
-0.288760930299758911 0.0789461806416511536 2.25574183464050293
-0.297324866056442261 0.0625756606459617615 2.26497077941894531
-0.292226582765579224 0.070319049060344696 2.26953530311584473
-0.299061119556427002 0.0604610666632652283 2.27149152755737305
-0.299191325902938843 0.0633042827248573303 2.27077198028564453
-0.30961841344833374 0.0652781128883361816 2.25798630714416504
-0.300969928503036499 0.0655615553259849548 2.26413393020629883
-0.302717030048370361 0.0634557902812957764 2.27063584327697754
-0.309553444385528564 0.0536225438117980957 2.27254581451416016
-0.309682786464691162 0.0564612336456775665 2.27182292938232422
-0.291919350624084473 0.0528154782950878143 2.27321791648864746
-0.311430990695953369 0.0587346106767654419 2.26518845558166504
-0.306149393320083618 0.0518713966012001038 2.28522968292236328
-0.316727727651596069 0.0567726530134677887 2.27149319648742676
-0.298844516277313232 0.0502912141382694244 2.2736976146697998
-0.313333779573440552 0.0594511702656745911 2.27094078063964844
-0.316855192184448242 0.0596035085618495941 2.27077102661132812
-0.311737567186355591 0.0556024089455604553 2.29016876220703125
-0.318571239709854126 0.0501818545162677765 2.27874660491943359
-0.304174810647964478 0.0438214167952537537 2.28087854385375977
-0.318441987037658691 0.0473398230969905853 2.27947664260864258
-0.307710796594619751 0.0439911521971225739 2.28072404861450195
-0.32210153341293335 0.0503425709903240204 2.27855634689331055
-0.32197272777557373 0.047503545880317688 2.27928686141967773
-0.32251855731010437 0.0589187964797019958 2.28882837295532227
-0.322646886110305786 0.0617644526064395905 2.28809261322021484
-0.295183122158050537 0.0472718328237533569 2.27454710006713867
-0.295316159725189209 0.050126098096370697 2.27382302284240723
-0.30050426721572876 0.0407901592552661896 2.28175544738769531
-0.304041832685470581 0.0409635975956916809 2.28161001205444336
-0.300369858741760254 0.0379274412989616394 2.28248810768127441
-0.30757826566696167 0.0411362983286380768 2.28145599365234375
-0.273104280233383179 0.0863224565982818604 2.26046967506408691
-0.28538048267364502 0.0816363692283630371 2.2551264762878418
-0.288888424634933472 0.0817729383707046509 2.25503873825073242
-0.25888669490814209 0.0815090686082839966 2.2495732307434082
-0.289014965295791626 0.0845978781580924988 2.25433731079101562
-0.285507440567016602 0.0844641700387001038 2.2544255256652832
-0.290855169296264648 0.0853675305843353271 2.26011562347412109
-0.253509223461151123 0.0746563002467155457 2.25693345069885254
-0.257024616003036499 0.0748062506318092346 2.25692272186279297
-0.342149287462234497 -0.913170933723449707 2.75074100494384766
-0.267803311347961426 -0.120456621050834656 2.34348797798156738
-0.288828611373901367 0.0730177611112594604 2.26893210411071777
-0.442502140998840332 0.0925139263272285461 2.42274212837219238
-0.258123874664306641 -0.0161299929022789001 2.25263190269470215
-0.333879590034484863 0.0545854754745960236 2.31345939636230469
-0.326709985733032227 0.0542745627462863922 2.31399917602539062
-0.318229079246520996 -0.0956193059682846069 2.46824955940246582
-0.269893437623977661 -0.182984977960586548 2.37024855613708496
-0.570812106132507324 0.0593792125582695007 2.51563358306884766
-0.570803701877593994 0.0669084042310714722 2.51371431350708008
-0.570709764957427979 0.0564646460115909576 2.51660871505737305
-0.582094311714172363 0.247971683740615845 2.42042374610900879
-0.585658669471740723 0.237993732094764709 2.42180919647216797
-0.596553444862365723 0.230415493249893188 2.41973495483398438
-0.169734716415405273 -0.0846247747540473938 2.15597128868103027
-0.166421175003051758 -0.0849053263664245605 2.15560126304626465
-0.159575536847114563 -0.0956460237503051758 2.15672898292541504
-0.159420296549797058 -0.0985149890184402466 2.15737462043762207
-0.166704848408699036 -0.0956229120492935181 2.14628958702087402
-0.168748646974563599 -0.0929121226072311401 2.14028763771057129
-0.161719530820846558 -0.10202382504940033 2.14140224456787109
-0.161873370409011841 -0.0991742610931396484 2.14076614379882812
-0.158742383122444153 -0.0966130420565605164 2.1397244930267334
-0.162760794162750244 -0.0868125408887863159 2.12723469734191895
-0.1593446284532547 -0.0899223685264587402 2.12744498252868652
-0.159495517611503601 -0.0870915725827217102 2.12682032585144043
-0.147096097469329834 -0.106442302465438843 2.13456416130065918
-0.147250816226005554 -0.103588655591011047 2.13393449783325195
-0.15608002245426178 -0.0902035385370254517 2.12702250480651855
-0.143824875354766846 -0.106734722852706909 2.13411688804626465
-0.143669188022613525 -0.109592162072658539 2.13474702835083008
-0.143979758024215698 -0.10387912392616272 2.13348817825317383
-0.16617661714553833 -0.0837086811661720276 2.12701678276062012
-0.156231090426445007 -0.087370745837688446 2.12639856338500977
-0.159645602107048035 -0.0842625722289085388 2.12619686126708984
-0.156381353735923767 -0.0845397636294364929 2.12577605247497559
-0.152664259076118469 -0.0933214202523231506 2.12721681594848633
-0.152816310524940491 -0.0904848352074623108 2.12659263610839844
-0.152967557311058044 -0.0876500681042671204 2.12596964836120605
-0.163059785962104797 -0.0811603590846061707 2.12598752975463867
-0.151322066783905029 -0.0937414318323135376 2.12149691581726074
-0.151473492383956909 -0.0909105017781257629 2.12087678909301758
-0.149704933166503906 -0.0879295393824577332 2.1255335807800293
-0.148068740963935852 -0.0940244719386100769 2.12105083465576172
-0.150138020515441895 -0.0913344249129295349 2.11518144607543945
-0.153035834431648254 -0.0804193988442420959 2.12475681304931641
-0.156449377536773682 -0.0773174166679382324 2.12456226348876953
-0.159862607717514038 -0.074221394956111908 2.12436008453369141
-0.159713476896286011 -0.0770448297262191772 2.12498140335083008
-0.156598702073097229 -0.0744919851422309875 2.12394165992736816
-0.15318615734577179 -0.0775901898741722107 2.12413573265075684
-0.153335675597190857 -0.0747627690434455872 2.12351608276367188
-0.149773344397544861 -0.0806943252682685852 2.12432241439819336
-0.149923846125602722 -0.0778631418943405151 2.12370204925537109
-0.16327551007270813 -0.0711313635110855103 2.12415027618408203
-0.16654089093208313 -0.070863187313079834 2.12455344200134277
-0.168080076575279236 -0.0675764754414558411 2.12960720062255859
-0.160230353474617004 -0.0613810308277606964 2.12190365791320801
-0.166268110275268555 -0.0601472929120063782 2.13368320465087891
-0.165897592902183533 -0.0730299204587936401 2.13617372512817383
-0.158478215336799622 -0.058336358517408371 2.12656164169311523
-0.161750942468643188 -0.0580762661993503571 2.12696719169616699
-0.15520632266998291 -0.0585967041552066803 2.12614846229553223
-0.166415601968765259 -0.057323947548866272 2.13305759429931641
-0.145473688840866089 -0.0521543398499488831 2.12364578247070312
-0.150519847869873047 -0.054962649941444397 2.11941981315612793
-0.147259384393692017 -0.0552207715809345245 2.11898446083068848
-0.142205655574798584 -0.0524111315608024597 2.12320542335510254
-0.140888959169387817 -0.052915278822183609 2.11748099327087402
-0.1646689772605896 -0.0542604401707649231 2.13776111602783203
-0.167814269661903381 -0.0568295195698738098 2.13876962661743164
-0.172301694750785828 -0.0661525577306747437 2.14675068855285645
-0.168998152017593384 -0.0664194375276565552 2.14638400077819824
-0.172152265906333923 -0.0689905509352684021 2.14738750457763672
-0.168698042631149292 -0.0721014440059661865 2.14765715599060059
-0.168848514556884766 -0.0692595317959785461 2.14701986312866211
-0.137566015124320984 -0.0487813018262386322 2.11642122268676758
-0.324467837810516357 0.0596388988196849823 2.29464173316955566
-0.322989284992218018 0.0630696192383766174 2.29996609687805176
-0.326555579900741577 0.0632169470191001892 2.29972743988037109
-0.326426684856414795 0.060361374169588089 2.30047249794006348
-0.331833481788635254 0.0656262487173080444 2.29268670082092285
-0.315805882215499878 0.06727619469165802 2.29963159561157227
-0.325158864259719849 0.0740204527974128723 2.30353975296020508
-0.321583390235900879 0.0738838464021682739 2.30378532409667969
-0.332514286041259766 0.0844689607620239258 2.30073690414428711
-0.336417227983474731 0.0786508172750473022 2.31395173072814941
-0.332638829946517944 0.0873117223381996155 2.29999566078186035
-0.336331099271774292 0.0902696326375007629 2.29898238182067871
-0.33620801568031311 0.0874319151043891907 2.29972195625305176
-0.332762420177459717 0.0901525765657424927 2.29925656318664551
-0.339898198843002319 0.0903857499361038208 2.29869937896728516
-0.339775621891021729 0.0875511839985847473 2.29943943023681641
-0.320845633745193481 0.0992974266409873962 2.31662964820861816
-0.323971986770629883 0.0950710847973823547 2.30507278442382812
-0.337794214487075806 0.0678241625428199768 2.31011819839477539
-0.356114685535430908 0.0843226462602615356 2.30475497245788574
-0.352851748466491699 0.0754194483160972595 2.3193056583404541
-0.359682828187942505 0.0844404548406600952 2.30441474914550781
-0.349134504795074463 0.0724336951971054077 2.32040810585021973
-0.34900858998298645 0.0695750042796134949 2.32117009162902832
-0.34553992748260498 0.0723005309700965881 2.32074069976806641
-0.349493056535720825 0.0709230825304985046 2.33324956893920898
-0.349619954824447632 0.0737948417663574219 2.33247828483581543
-0.354904651641845703 0.0761678963899612427 2.32513117790222168
-0.345286041498184204 0.0665747150778770447 2.3222661018371582
-0.338089615106582642 0.0662928745150566101 2.32290291786193848
-0.341483414173126221 0.0561707466840744019 2.3249213695526123
-0.34508204460144043 0.0563221536576747894 2.3245999813079834
-0.359802663326263428 0.0872663185000419617 2.30366778373718262
-0.353105843067169189 0.0710571557283401489 2.33288741111755371
-0.353232234716415405 0.0739256367087364197 2.33211565017700195
-0.347380906343460083 0.0892083644866943359 2.31070756912231445
-0.34379732608795166 0.0890925973653793335 2.31102776527404785
-0.360422760248184204 0.0959892794489860535 2.31394410133361816
-0.356836915016174316 0.0958841964602470398 2.31430673599243164
-0.356716245412826538 0.0930468142032623291 2.31506013870239258
-0.353127986192703247 0.0929374992847442627 2.31541347503662109
-0.353249192237854004 0.095778144896030426 2.31466054916381836
-0.349537938833236694 0.092827238142490387 2.31575775146484375
-0.345946073532104492 0.0927160158753395081 2.31609344482421875
-0.349659651517868042 0.0956711247563362122 2.31500530242919922
-0.360894113779067993 0.0901100039482116699 2.32747459411621094
-0.371168822050094604 0.0962987244129180908 2.31280350685119629
-0.35923883318901062 0.0879150852560997009 2.33446693420410156
-0.360649734735488892 0.0844051986932754517 2.32900619506835938
-0.362854093313217163 0.0880282297730445862 2.33406925201416016
-0.357042670249938965 0.0842874124646186829 2.32938814163208008
-0.36646735668182373 0.0881404280662536621 2.33366250991821289
-0.362731188535690308 0.0851700380444526672 2.33484077453613281
-0.355372607707977295 0.0820693224668502808 2.33639907836914062
-0.370078593492507935 0.0882516726851463318 2.33324670791625977
-0.370199382305145264 0.0911012068390846252 2.33247637748718262
-0.364772051572799683 0.107713736593723297 2.32314562797546387
-0.361170351505279541 0.107622712850570679 2.32353949546813965
-0.357446730136871338 0.104686878621578217 2.32468295097351074
-0.357566714286804199 0.107530675828456879 2.32392454147338867
-0.366862624883651733 0.108516871929168701 2.32893180847167969
-0.364889919757843018 0.110549002885818481 2.3223881721496582
-0.361288756132125854 0.110461294651031494 2.32278251647949219
-0.366980671882629395 0.111356846988201141 2.32816982269287109
-0.357685625553131104 0.110372573137283325 2.32316803932189941
-0.343920350074768066 0.0919368043541908264 2.31027841567993164
-0.351381123065948486 0.132159590721130371 2.33127307891845703
-0.358625948429107666 0.132290810346603394 2.33048152923583984
-0.358509451150894165 0.129448860883712769 2.33123898506164551
-0.356434732675552368 0.128603741526603699 2.32541847229003906
-0.356716752052307129 0.0711903497576713562 2.33251619338989258
-0.356842637062072754 0.0740555301308631897 2.33174395561218262
-0.372115731239318848 0.0816551968455314636 2.3406674861907959
-0.368247628211975098 0.0758067741990089417 2.34265732765197754
-0.364623695611953735 0.0756811350584030151 2.3430778980255127
-0.347706973552703857 0.10219680517911911 2.30764937400817871
-0.340541958808898926 0.101992480456829071 2.30828475952148438
-0.37270006537437439 0.136545911431312561 2.31538987159729004
-0.376180171966552734 0.133792206645011902 2.31571221351623535
-0.376100242137908936 0.126536533236503601 2.31730222702026367
-0.376290947198867798 0.136601105332374573 2.31496596336364746
-0.368799775838851929 0.123580493032932281 2.31888866424560547
-0.351811081171035767 0.125324442982673645 2.30196905136108398
-0.355385750532150269 0.125398963689804077 2.30162644386291504
-0.362755507230758667 0.131153926253318787 2.29944515228271484
-0.348234593868255615 0.125248849391937256 2.30230259895324707
-0.372060120105743408 0.139337435364723206 2.30277824401855469
-0.379417479038238525 0.145018160343170166 2.30049467086791992
-0.372169911861419678 0.14213290810585022 2.30204296112060547
-0.382983744144439697 0.145062237977981567 2.30007386207580566
-0.379309803247451782 0.142231106758117676 2.30122828483581543
-0.38287663459777832 0.142278507351875305 2.30080795288085938
-0.375849097967147827 0.144972950220108032 2.30090665817260742
-0.375740885734558105 0.142182573676109314 2.30164003372192383
-0.368596941232681274 0.142082110047340393 2.30243730545043945
-0.372278690338134766 0.144926592707633972 2.30130982398986816
-0.386547893285751343 0.145105183124542236 2.29964423179626465
-0.386653423309326172 0.147883787751197815 2.29891204833984375
-0.384998470544815063 0.143126264214515686 2.30642032623291016
-0.390109896659851074 0.145146965980529785 2.29920601844787598
-0.392248243093490601 0.145995438098907471 2.30478358268737793
-0.388783693313598633 0.148738503456115723 2.30450034141540527
-0.392353296279907227 0.148775070905685425 2.304046630859375
-0.376039952039718628 0.154951006174087524 2.29860210418701172
-0.396101653575897217 0.158741727471351624 2.30126595497131348
-0.394056797027587891 0.160638928413391113 2.29499483108520508
-0.37612682580947876 0.162129998207092285 2.29702615737915039
-0.368195593357086182 0.16750277578830719 2.31492972373962402
-0.397587627172470093 0.162200406193733215 2.32463216781616211
-0.372471123933792114 0.154915884137153625 2.29900646209716797
-0.399376720190048218 0.18125702440738678 2.31379032135009766
-0.405852377414703369 0.18218994140625 2.30045771598815918
-0.40228724479675293 0.182197108864784241 2.30095553398132324
-0.414509803056716919 0.191071629524230957 2.29115486145019531
-0.410961508750915527 0.191092029213905334 2.29166388511657715
-0.416705191135406494 0.191980823874473572 2.29659223556518555
-0.420258760452270508 0.191956818103790283 2.29605913162231445
-0.418147385120391846 0.193778291344642639 2.28991985321044922
-0.411135762929916382 0.200887829065322876 2.28936123847961426
-0.417376041412353516 0.19895578920841217 2.27706074714660645
-0.408958107233047485 0.199963554739952087 2.2839353084564209
-0.418226331472396851 0.200822427868843079 2.28833389282226562
-0.405334264039993286 0.192934170365333557 2.28599691390991211
-0.421767890453338623 0.200787737965583801 2.28780722618103027
-0.422563523054122925 0.195602521300315857 2.30076813697814941
-0.422471702098846436 0.192866027355194092 2.30149412155151367
-0.417049974203109741 0.211558550596237183 2.29196357727050781
-0.398719727993011475 0.182202994823455811 2.30144453048706055
-0.399808287620544434 0.206136524677276611 2.27788519859313965
-0.403342723846435547 0.206103816628456116 2.27742338180541992
-0.392038047313690186 0.209102988243103027 2.2961723804473877
-0.389992296695709229 0.210896164178848267 2.28993964195251465
-0.393551051616668701 0.210860729217529297 2.28948187828063965
-0.402051836252212524 0.209802001714706421 2.28261280059814453
-0.40922209620475769 0.212443187832832336 2.2809450626373291
-0.373837977647781372 0.151301398873329163 2.29371762275695801
-0.413586795330047607 0.214332282543182373 2.29177594184875488
-0.410032480955123901 0.214380472898483276 2.29229259490966797
-0.417138665914535522 0.214282721281051636 2.29125046730041504
-0.415956228971481323 0.22505912184715271 2.29489469528198242
-0.412396013736724854 0.225121572613716125 2.29542732238769531
-0.423438817262649536 0.214960932731628418 2.27821230888366699
-0.419513940811157227 0.224995255470275879 2.29435348510742188
-0.404392063617706299 0.2205238938331604 2.28576183319091797
-0.404302388429641724 0.217797711491584778 2.2864682674407959
-0.416977405548095703 0.236859932541847229 2.30400538444519043
-0.420465707778930664 0.234052151441574097 2.30415773391723633
-0.424122422933578491 0.236699178814888 2.30286788940429688
-0.427606672048568726 0.233895465731620789 2.30300283432006836
-0.427690953016281128 0.236616596579551697 2.30228614807128906
-0.424037516117095947 0.233974531292915344 2.30358457565307617
-0.42055124044418335 0.236780285835266113 2.30344104766845703
-0.427774161100387573 0.239336133003234863 2.30157160758972168
-0.426099658012390137 0.225156679749488831 2.31137943267822266
-0.406420350074768066 0.246904268860816956 2.30331158638000488
-0.409999936819076538 0.246817246079444885 2.30277323722839355
-0.404480695724487305 0.223248466849327087 2.28505778312683105
-0.430924475193023682 0.217008188366889954 2.30637931823730469
-0.431935817003250122 0.221710190176963806 2.3171389102935791
-0.431848824024200439 0.218971014022827148 2.3178708553314209
-0.349350720643997192 0.20579276978969574 2.31445813179016113
-0.343695163726806641 0.204824015498161316 2.30906367301940918
-0.373347729444503784 0.197426676750183105 2.28910994529724121
-0.355937153100967407 0.196603164076805115 2.30344843864440918
-0.343589603900909424 0.202018499374389648 2.30978560447692871
-0.37377619743347168 0.189388737082481384 2.30303144454956055
-0.334773063659667969 0.203018054366111755 2.3166499137878418
-0.341558754444122314 0.201043829321861267 2.30402326583862305
-0.340087383985519409 0.204833686351776123 2.30941963195800781
-0.332866460084915161 0.204848900437355042 2.3101048469543457
-0.339642941951751709 0.202868402004241943 2.29756426811218262
-0.332759082317352295 0.202033638954162598 2.31082630157470703
-0.331041246652603149 0.200197756290435791 2.31772160530090332
-0.323899984359741211 0.20302775502204895 2.31765532493591309
-0.403173923492431641 0.192021012306213379 2.28056049346923828
-0.399665087461471558 0.158764451742172241 2.30079412460327148
-0.400931239128112793 0.223302915692329407 2.28554201126098633
-0.400842010974884033 0.220574960112571716 2.28624629974365234
-0.400751739740371704 0.217845410108566284 2.28695249557495117
-0.405947297811508179 0.229245394468307495 2.27757620811462402
-0.427266746759414673 0.214335426688194275 2.30769515037536621
-0.395237386226654053 0.226702183485031128 2.27968215942382812
-0.395326375961303711 0.22942526638507843 2.27898430824279785
-0.391781538724899292 0.229482367634773254 2.27943658828735352
