ply
format ascii 1.0
element vertex 740
comment vertices
property float x
property float y
property float z
end_header
-0.408937990665435791 -0.120400264859199524 0.253833413124084473
-0.423950105905532837 -0.119447454810142517 0.241856902837753296
-0.422530621290206909 -0.11334257572889328 0.243616551160812378
-0.34869721531867981 -0.138008356094360352 0.316291719675064087
-0.248731359839439392 -0.127793282270431519 0.408351480960845947
-0.248017311096191406 -0.128448769450187683 0.408796101808547974
-0.247348964214324951 -0.128383815288543701 0.409200102090835571
-0.248685970902442932 -0.128513902425765991 0.408390641212463379
-0.24629819393157959 -0.129120707511901855 0.408727943897247314
-0.248640939593315125 -0.12923431396484375 0.408430129289627075
-0.246968016028404236 -0.129185989499092102 0.408326566219329834
-0.249309942126274109 -0.129300221800804138 0.408023476600646973
-0.243539497256278992 -0.124750129878520966 0.411419034004211426
-0.241495802998542786 -0.125282168388366699 0.412635445594787598
-0.240830317139625549 -0.125221043825149536 0.413025498390197754
-0.239454284310340881 -0.125812098383903503 0.413837194442749023
-0.239103972911834717 -0.126378804445266724 0.415186971426010132
-0.238698974251747131 -0.127174541354179382 0.414295315742492676
-0.238395944237709045 -0.127028301358222961 0.415607720613479614
-0.238351225852966309 -0.127739250659942627 0.415644288063049316
-0.238441064953804016 -0.126317143440246582 0.415571540594100952
-0.234750866889953613 -0.127281293272972107 0.418854743242263794
-0.23404616117477417 -0.127926349639892578 0.419264256954193115
-0.233582213521003723 -0.129423841834068298 0.41839677095413208
-0.233626112341880798 -0.128717675805091858 0.418360799551010132
-0.23353874683380127 -0.130129799246788025 0.418433159589767456
-0.233297884464263916 -0.129275888204574585 0.419707626104354858
-0.233254283666610718 -0.129981338977813721 0.419743567705154419
-0.233386337757110596 -0.127864331007003784 0.419636934995651245
-0.233341902494430542 -0.128570228815078735 0.419672101736068726
-0.238270238041877747 -0.123173490166664124 0.414471149444580078
-0.23512701690196991 -0.131966590881347656 0.418711155652999878
-0.235787585377693176 -0.132032305002212524 0.418335139751434326
-0.236448302865028381 -0.132098227739334106 0.417957574129104614
-0.237152889370918274 -0.131455764174461365 0.417541533708572388
-0.23781391978263855 -0.131521463394165039 0.417160689830780029
-0.244588330388069153 -0.129559263586997986 0.410878002643585205
-0.242227822542190552 -0.129929676651954651 0.413413822650909424
-0.238475143909454346 -0.131587371230125427 0.416778326034545898
-0.239180520176887512 -0.13094291090965271 0.416357159614562988
-0.232638061046600342 -0.129212900996208191 0.420078277587890625
-0.232682138681411743 -0.128507807850837708 0.420042991638183594
-0.232121258974075317 -0.13296256959438324 0.421582669019699097
-0.232779309153556824 -0.133028581738471985 0.421213716268539429
-0.231934666633605957 -0.129854381084442139 0.420482814311981201
-0.233437478542327881 -0.133094802498817444 0.420843183994293213
-0.230572104454040527 -0.130431070923805237 0.421251147985458374
-0.230230316519737244 -0.12981337308883667 0.420271337032318115
-0.230104744434356689 -0.133467242121696472 0.422715514898300171
-0.229404434561729431 -0.134102165699005127 0.423113524913787842
-0.230719983577728271 -0.134235173463821411 0.422387510538101196
-0.231420397758483887 -0.133599475026130676 0.421985894441604614
-0.231377899646759033 -0.13430197536945343 0.422022134065628052
-0.232078373432159424 -0.133665874600410461 0.421618729829788208
-0.232035905122756958 -0.134368970990180969 0.421655178070068359
-0.228159874677658081 -0.131027698516845703 0.421425312757492065
-0.228704556822776794 -0.134735926985740662 0.423509895801544189
-0.229362249374389648 -0.134802713990211487 0.42314949631690979
-0.22808915376663208 -0.133969947695732117 0.423833131790161133
-0.230020031332969666 -0.134869709610939026 0.422787517309188843
-0.22824251651763916 -0.131493538618087769 0.423718392848968506
-0.231335818767547607 -0.13500426709651947 0.422058790922164917
-0.228005111217498779 -0.135368496179580688 0.423904657363891602
-0.229320526123046875 -0.135503038763999939 0.423185914754867554
-0.226885423064231873 -0.1320648193359375 0.424468278884887695
-0.232736453413963318 -0.13373248279094696 0.421249985694885254
-0.232694029808044434 -0.134436160326004028 0.421286672353744507
-0.230344206094741821 -0.129579797387123108 0.42252802848815918
-0.229730844497680664 -0.128815039992332458 0.422857493162155151
-0.233394667506217957 -0.133799269795417786 0.42087969183921814
-0.227701976895332336 -0.135914012789726257 0.425251096487045288
-0.229013323783874512 -0.136049509048461914 0.424533426761627197
-0.229669094085693359 -0.136117547750473022 0.42417222261428833
-0.23063620924949646 -0.135638386011123657 0.422460794448852539
-0.237109199166297913 -0.132164329290390015 0.41757848858833313
-0.23777027428150177 -0.132230609655380249 0.417197883129119873
-0.234053000807762146 -0.133866265416145325 0.420507818460464478
-0.246923297643661499 -0.129904940724372864 0.408366084098815918
-0.245583876967430115 -0.129773363471031189 0.409166902303695679
-0.246253445744514465 -0.129839062690734863 0.408767223358154297
-0.249265283346176147 -0.130021005868911743 0.408063501119613647
-0.234797358512878418 -0.132521942257881165 0.420060873031616211
-0.235455915331840515 -0.13258814811706543 0.419685482978820801
-0.231952235102653503 -0.135774508118629456 0.421729326248168945
-0.2428923100233078 -0.129995018243789673 0.413021326065063477
-0.225949957966804504 -0.136562317609786987 0.425042599439620972
-0.227660879492759705 -0.136612266302108765 0.425287425518035889
-0.228316545486450195 -0.136680498719215393 0.424929618835449219
-0.228972271084785461 -0.136748924851417542 0.424570202827453613
-0.233352258801460266 -0.134503528475761414 0.420916587114334106
-0.24355703592300415 -0.130060553550720215 0.412627339363098145
-0.24422203004360199 -0.130126282572746277 0.412231862545013428
-0.244543761014938354 -0.130275651812553406 0.410916715860366821
-0.232652008533477783 -0.135139614343643188 0.4213237464427948
-0.225776910781860352 -0.135015502572059631 0.426280230283737183
-0.225653365254402161 -0.1371050626039505 0.42638733983039856
-0.226308956742286682 -0.137173280119895935 0.426034599542617798
-0.225038543343544006 -0.136341318488121033 0.426702529191970825
-0.22548481822013855 -0.135558798909187317 0.427628248929977417
-0.224831372499465942 -0.135492041707038879 0.427979528903961182
-0.225526690483093262 -0.134862542152404785 0.427593529224395752
-0.224789932370185852 -0.136187523603439331 0.428014516830444336
-0.224986851215362549 -0.133029401302337646 0.427871853113174438
-0.224054932594299316 -0.137509539723396301 0.428434818983078003
-0.224095463752746582 -0.136815071105957031 0.428399145603179932
-0.224748969078063965 -0.136882781982421875 0.428049921989440918
-0.222788423299789429 -0.136680260300636292 0.429092615842819214
-0.222985535860061646 -0.13353043794631958 0.428952634334564209
-0.222707748413085938 -0.138066664338111877 0.429163575172424316
-0.222094252705574036 -0.137305885553359985 0.429471909999847412
-0.222134858369827271 -0.136613145470619202 0.429436862468719482
-0.221818417310714722 -0.137843310832977295 0.430820614099502563
-0.220707133412361145 -0.138553619384765625 0.430225640535354614
-0.221899643540382385 -0.13645896315574646 0.430751144886016846
-0.225606828927993774 -0.140020564198493958 0.428800225257873535
-0.225566685199737549 -0.140715464949607849 0.428836464881896973
-0.225527003407478333 -0.141410157084465027 0.428873151540756226
-0.224875301122665405 -0.141338527202606201 0.429223924875259399
-0.219784155488014221 -0.139020130038261414 0.431911557912826538
-0.22152237594127655 -0.135853856801986694 0.429745078086853027
-0.220475301146507263 -0.138398334383964539 0.431537866592407227
-0.220045819878578186 -0.141374498605728149 0.432982325553894043
-0.219318315386772156 -0.142681121826171875 0.433390647172927856
-0.221267729997634888 -0.142896562814712524 0.432375311851501465
-0.218630313873291016 -0.143297359347343445 0.433761894702911377
-0.21859276294708252 -0.143984794616699219 0.43379858136177063
-0.219280257821083069 -0.143369331955909729 0.433427006006240845
-0.219930127263069153 -0.143441528081893921 0.433090418577194214
-0.217942744493484497 -0.143912434577941895 0.434131592512130737
-0.220579922199249268 -0.143513917922973633 0.432752132415771484
-0.217980265617370605 -0.143225565552711487 0.434095084667205811
-0.217292606830596924 -0.143840283155441284 0.434462904930114746
-0.217687875032424927 -0.144438803195953369 0.435482412576675415
-0.221229642629623413 -0.143586516380310059 0.432412177324295044
-0.218851417303085327 -0.146331056952476501 0.434863388538360596
-0.217481330037117004 -0.147553667426109314 0.435602664947509766
-0.218129456043243408 -0.147628903388977051 0.435270935297012329
-0.2172669917345047 -0.147390618920326233 0.436917215585708618
-0.218777477741241455 -0.147704362869262695 0.434937536716461182
-0.216391682624816895 -0.144293829798698425 0.436142653226852417
-0.219425395131111145 -0.147780001163482666 0.434602409601211548
-0.215974569320678711 -0.14724104106426239 0.437575191259384155
-0.215328171849250793 -0.14716656506061554 0.437901586294174194
-0.215743407607078552 -0.144221663475036621 0.436470180749893188
-0.215058207511901855 -0.144833415746688843 0.436832249164581299
-0.215094968676567078 -0.144149690866470337 0.436795979738235474
-0.215902164578437805 -0.148608088493347168 0.437648862600326538
-0.216548353433609009 -0.148683905601501465 0.43732103705406189
-0.215255841612815857 -0.148532465100288391 0.437974989414215088
-0.214609354734420776 -0.148457050323486328 0.438299387693405151
-0.217194437980651855 -0.148759946227073669 0.436991453170776367
-0.213962718844413757 -0.148381844162940979 0.438621997833251953
-0.217409566044807434 -0.148923829197883606 0.435678213834762573
-0.218093276023864746 -0.148314669728279114 0.435308605432510376
-0.218057602643966675 -0.149000227451324463 0.435346782207489014
-0.218741253018379211 -0.148390695452690125 0.434975326061248779
-0.218705534934997559 -0.14907681941986084 0.435013651847839355
-0.216512903571128845 -0.149367690086364746 0.437358766794204712
-0.215185612440109253 -0.149897545576095581 0.43805047869682312
-0.214539229869842529 -0.149820983409881592 0.438374608755111694
-0.214574024081230164 -0.149139121174812317 0.438336730003356934
-0.215690284967422485 -0.151710957288742065 0.437760233879089355
-0.216336637735366821 -0.151789233088493347 0.437433332204818726
-0.216982871294021606 -0.151867702603340149 0.437104731798171997
-0.214123994112014771 -0.152750536799430847 0.439797133207321167
-0.213479384779930115 -0.152671918272972107 0.440118461847305298
-0.215412735939025879 -0.152908384799957275 0.439149260520935059
-0.212800800800323486 -0.15327279269695282 0.44047623872756958
-0.213445514440536499 -0.153351768851280212 0.440156757831573486
-0.214090049266815186 -0.153430953621864319 0.439835548400878906
-0.214734435081481934 -0.153510347008705139 0.439512580633163452
-0.212734848260879517 -0.154630750417709351 0.440554291009902954
-0.212767556309700012 -0.153951868414878845 0.440514981746673584
-0.213379397988319397 -0.154710873961448669 0.440234988927841187
-0.213412180542945862 -0.154031425714492798 0.440195620059967041
-0.21209011971950531 -0.154550835490226746 0.44087180495262146
-0.214023768901824951 -0.154791206121444702 0.439913958311080933
-0.214056640863418579 -0.154111176729202271 0.439874470233917236
-0.210584595799446106 -0.157467961311340332 0.441601783037185669
-0.212257251143455505 -0.158898800611495972 0.44204634428024292
-0.214485213160514832 -0.157282903790473938 0.439656257629394531
-0.213746145367622375 -0.159237518906593323 0.440100431442260742
-0.214390233159065247 -0.159321621060371399 0.439778625965118408
-0.215097174048423767 -0.158045843243598938 0.439372867345809937
-0.215065419673919678 -0.15872599184513092 0.439413726329803467
-0.215621441602706909 -0.153075531125068665 0.437837362289428711
-0.216267675161361694 -0.153154939413070679 0.437510669231414795
-0.216948077082633972 -0.152551233768463135 0.437143236398696899
-0.216913774609565735 -0.153234556317329407 0.43718227744102478
-0.22007325291633606 -0.147855862975120544 0.434265613555908203
-0.217629000544548035 -0.151946380734443665 0.436774402856826782
-0.217559784650802612 -0.153314366936683655 0.436852157115936279
-0.217594131827354431 -0.152630478143692017 0.436813026666641235
-0.219389155507087708 -0.148466914892196655 0.434640377759933472
-0.221500441431999207 -0.143055811524391174 0.431062787771224976
-0.216067478060722351 -0.142326101660728455 0.435048848390579224
-0.216106042265892029 -0.141640543937683105 0.435013890266418457
-0.209877952933311462 -0.1587371826171875 0.441994398832321167
-0.215034171938896179 -0.159405946731567383 0.439455091953277588
-0.210268735885620117 -0.160000056028366089 0.443072319030761719
-0.212036684155464172 -0.161975458264350891 0.442141801118850708
-0.212679103016853333 -0.162061378359794617 0.441824436187744141
-0.211977317929267883 -0.163327768445014954 0.442225664854049683
-0.212649017572402954 -0.162738204002380371 0.441866129636764526
-0.21261945366859436 -0.163414821028709412 0.441908359527587891
-0.212590441107749939 -0.164091259241104126 0.441951125860214233
-0.21332135796546936 -0.162147507071495056 0.441505342721939087
-0.213291123509407043 -0.162824898958206177 0.44154706597328186
-0.213261440396308899 -0.163502097129821777 0.441589325666427612
-0.205264538526535034 -0.169404983520507812 0.444225490093231201
-0.213232278823852539 -0.164179086685180664 0.441632121801376343
-0.221062079071998596 -0.146028578281402588 0.432502001523971558
-0.220374718308448792 -0.146642625331878662 0.432878434658050537
-0.220337793231010437 -0.147330954670906067 0.432916194200515747
-0.215741202235221863 -0.158129230141639709 0.439047515392303467
-0.216880008578300476 -0.153917685151100159 0.437221825122833252
-0.224184378981590271 -0.141960427165031433 0.429609864950180054
-0.21236865222454071 -0.167164713144302368 0.442045599222183228
-0.215709328651428223 -0.158809944987297058 0.439088433980941772
-0.220721051096916199 -0.147931918501853943 0.433927148580551147
-0.221024632453918457 -0.146717697381973267 0.432539433240890503
-0.205940395593643188 -0.179347410798072815 0.44907650351524353
-0.225071325898170471 -0.131636559963226318 0.427803337574005127
-0.234754219651222229 -0.133227795362472534 0.420097470283508301
-0.228767469525337219 -0.129306033253669739 0.424569010734558105
-0.227413281798362732 -0.129881322383880615 0.425321429967880249
-0.226758167147636414 -0.129818886518478394 0.425678253173828125
-0.225613385438919067 -0.131239205598831177 0.425141632556915283
-0.226218029856681824 -0.130218222737312317 0.428349524736404419
-0.23471146821975708 -0.13393343985080719 0.420134425163269043
-0.241519138216972351 -0.130577772855758667 0.413842588663101196
-0.240855097770690918 -0.130512207746505737 0.414231866598129272
-0.240191280841827393 -0.130446821451187134 0.414619654417037964
-0.242183417081832886 -0.130643531680107117 0.413451790809631348
-0.250024259090423584 -0.128644734621047974 0.407575368881225586
-0.250069558620452881 -0.127922907471656799 0.407535731792449951
-0.255331128835678101 -0.131248265504837036 0.402141988277435303
-0.256631046533584595 -0.131152421236038208 0.403519690036773682
-0.256993979215621948 -0.131303608417510986 0.402197003364562988
-0.255962491035461426 -0.132044032216072083 0.401763767004013062
-0.255286157131195068 -0.13197481632232666 0.402183979749679565
-0.253259420394897461 -0.131768286228179932 0.403436034917831421
-0.266386538743972778 -0.124680705368518829 0.393885821104049683
-0.245255589485168457 -0.129624664783477783 0.410480320453643799
-0.214180424809455872 -0.141148298978805542 0.43235480785369873
-0.218205675482749939 -0.153394401073455811 0.436520367860794067
-0.248219609260559082 -0.130757197737693787 0.407599717378616333
-0.269133687019348145 -0.120571121573448181 0.390951931476593018
-0.235040619969367981 -0.133379533886909485 0.418784826993942261
-0.239483490586280823 -0.13109290599822998 0.41504332423210144
-0.237065926194190979 -0.132872655987739563 0.417615830898284912
-0.218171760439872742 -0.154078662395477295 0.436560124158859253
-0.246878936886787415 -0.130623683333396912 0.408405929803848267
-0.246209040284156799 -0.130557194352149963 0.408806860446929932
-0.241475045680999756 -0.131290823221206665 0.413880646228790283
-0.240810975432395935 -0.131224662065505981 0.414269715547561646
-0.240147113800048828 -0.131158694624900818 0.414657264947891235
-0.234010621905326843 -0.134571105241775513 0.420544952154159546
-0.221711963415145874 -0.146103262901306152 0.432161211967468262
-0.215677991509437561 -0.159490451216697693 0.439129859209060669
-0.41090354323387146 -0.118780419230461121 0.252217262983322144
-0.412740439176559448 -0.118933923542499542 0.250762015581130981
-0.411821246147155762 -0.11885707825422287 0.251490503549575806
-0.409987330436706543 -0.118703939020633698 0.252942323684692383
-0.412848025560379028 -0.117971733212471008 0.251516044139862061
-0.410971313714981079 -0.117891944944858551 0.252133011817932129
-0.410122781991958618 -0.116928473114967346 0.252774417400360107
-0.412916064262390137 -0.117081426084041595 0.251431494951248169
-0.41184842586517334 -0.118039704859256744 0.25056833028793335
-0.411997795104980469 -0.1170063316822052 0.252160042524337769
-0.284483522176742554 -0.144054427742958069 0.378125190734863281
-0.283731520175933838 -0.144722476601600647 0.378652304410934448
-0.284437894821166992 -0.144806906580924988 0.378176629543304443
-0.283025741577148438 -0.144638240337371826 0.379126638174057007
-0.282320618629455566 -0.144554197788238525 0.379599630832672119
-0.285190552473068237 -0.144138410687446594 0.377647936344146729
-0.285144895315170288 -0.144891530275344849 0.377699553966522217
-0.238069429993629456 -0.132381454110145569 0.415885776281356812
-0.227857574820518494 -0.139693617820739746 0.426386266946792603
-0.228552192449569702 -0.139066323637962341 0.425991475582122803
-0.426424145698547363 -0.111825183033943176 0.240434944629669189
-0.428483128547668457 -0.109386533498764038 0.236960291862487793
-0.427443534135818481 -0.110294342041015625 0.236962363123893738
-0.275519490242004395 -0.114074885845184326 0.385520100593566895
-0.321925520896911621 -0.126899957656860352 0.341384768486022949
-0.251366019248962402 -0.113577157258987427 0.400930672883987427
-0.358251422643661499 -0.113633453845977783 0.306402266025543213
-0.356500715017318726 -0.113572984933853149 0.306813746690750122
-0.3583107590675354 -0.112798787653446198 0.306333839893341064
-0.358370274305343628 -0.111963868141174316 0.306265532970428467
-0.282275348901748657 -0.14530453085899353 0.379650682210922241
-0.28439253568649292 -0.145559176802635193 0.378228276968002319
-0.283686161041259766 -0.145474106073379517 0.378703773021697998
-0.282980442047119141 -0.145389214158058167 0.37917792797088623
-0.285099506378173828 -0.145644441246986389 0.377751410007476807
-0.281570851802825928 -0.145220041275024414 0.380122095346450806
-0.234669134020805359 -0.134638875722885132 0.420171767473220825
-0.258472740650177002 -0.135628566145896912 0.400260508060455322
-0.257794737815856934 -0.135555967688560486 0.400685399770736694
-0.259151160717010498 -0.135701358318328857 0.399834185838699341
-0.233310282230377197 -0.135207578539848328 0.420953899621963501
-0.273734360933303833 -0.147682934999465942 0.388520926237106323
-0.273690730333328247 -0.148423701524734497 0.388570189476013184
-0.272402048110961914 -0.15112575888633728 0.39054560661315918
-0.272444665431976318 -0.150387108325958252 0.390495985746383667
-0.272998243570327759 -0.148337870836257935 0.389024198055267334
-0.27313503623008728 -0.150474622845649719 0.390043348073959351
-0.271712273359298706 -0.151037812232971191 0.390996694564819336
-0.271754801273345947 -0.150299787521362305 0.390947252511978149
-0.273041814565658569 -0.147597745060920715 0.388975083827972412
-0.272487521171569824 -0.14964824914932251 0.390446603298187256
-0.273092389106750488 -0.151213884353637695 0.390093147754669189
-0.271022975444793701 -0.150950074195861816 0.391446411609649658
-0.273177951574325562 -0.149735137820243835 0.389993786811828613
-0.27460363507270813 -0.149168550968170166 0.389034390449523926
-0.271065503358840942 -0.150212675333023071 0.391397148370742798
-0.274560391902923584 -0.149909496307373047 0.389084070920944214
-0.271797657012939453 -0.149561554193496704 0.390898048877716064
-0.274517416954040527 -0.15065021812915802 0.389133989810943604
-0.271108299493789673 -0.149475067853927612 0.391348123550415039
-0.271614879369735718 -0.148166820406913757 0.389928042888641357
-0.273221105337142944 -0.148995444178581238 0.389944463968276978
-0.270923972129821777 -0.148081585764884949 0.390377908945083618
-0.272306293249130249 -0.148252248764038086 0.389476805925369263
-0.272530674934387207 -0.148909181356430054 0.390397459268569946
-0.271840751171112061 -0.14882311224937439 0.390849113464355469
-0.271151363849639893 -0.148737236857414246 0.39129936695098877
-0.274427413940429688 -0.147768333554267883 0.388065367937088013
-0.275164991617202759 -0.147111684083938599 0.387559056282043457
-0.275121033191680908 -0.14785391092300415 0.387608468532562256
-0.275077372789382935 -0.148595914244651794 0.387658119201660156
-0.275295734405517578 -0.14925539493560791 0.388577282428741455
-0.275859206914901733 -0.147196829319000244 0.38710060715675354
-0.275067836046218872 -0.144568413496017456 0.386532485485076904
-0.275815218687057495 -0.147939682006835938 0.387150198221206665
-0.274372696876525879 -0.144485607743263245 0.386989742517471313
-0.272558540105819702 -0.144156768918037415 0.389224916696548462
-0.275771498680114746 -0.148682311177253723 0.387200027704238892
-0.275988399982452393 -0.149342432618141174 0.388118833303451538
-0.275252461433410645 -0.149996966123580933 0.388627141714096069
-0.272602617740631104 -0.143416181206703186 0.389176398515701294
-0.271867036819458008 -0.144074708223342896 0.389677226543426514
-0.270334243774414062 -0.150862529873847961 0.391894757747650146
-0.270292043685913086 -0.151599094271659851 0.39194411039352417
-0.270376712083816528 -0.150125741958618164 0.391845673322677612
-0.270419478416442871 -0.149388760328292847 0.39179682731628418
-0.270980745553970337 -0.151687264442443848 0.391495943069458008
-0.270462512969970703 -0.148651555180549622 0.391748249530792236
-0.274348169565200806 -0.153267040848731995 0.389285117387771606
-0.275209426879882812 -0.150738313794136047 0.388677239418029785
-0.275040149688720703 -0.153357252478599548 0.38882911205291748
-0.269603848457336426 -0.151511117815971375 0.392390906810760498
-0.269645988941192627 -0.150775179266929626 0.392341732978820801
-0.269688427448272705 -0.150039017200469971 0.392292827367782593
-0.268874317407608032 -0.152158454060554504 0.392885565757751465
-0.26973116397857666 -0.149302646517753601 0.392244160175323486
-0.26766929030418396 -0.149045497179031372 0.393577873706817627
-0.267626672983169556 -0.149780005216598511 0.393626004457473755
-0.267584323883056641 -0.150514304637908936 0.393674373626708984
-0.267500549554824829 -0.15198226273059845 0.393771916627883911
-0.26754230260848999 -0.151248380541801453 0.393723011016845703
-0.26921197772026062 -0.155323997139930725 0.394828349351882935
-0.271953493356704712 -0.155689626932144165 0.393037855625152588
-0.267525523900985718 -0.155958712100982666 0.394888252019882202
-0.266840964555740356 -0.155867591500282288 0.395328938961029053
-0.266212373971939087 -0.15034136176109314 0.394555896520614624
-0.266940385103225708 -0.149694055318832397 0.394067615270614624
-0.265527099370956421 -0.150255188345909119 0.394994556903839111
-0.266254603862762451 -0.149608299136161804 0.394507855176925659
-0.266898095607757568 -0.150427728891372681 0.394115835428237915
-0.265569299459457397 -0.149522751569747925 0.394946694374084473
-0.265734732151031494 -0.146931245923042297 0.394801110029220581
-0.26681441068649292 -0.151894450187683105 0.394213020801544189
-0.261431753635406494 -0.159421607851982117 0.399975389242172241
-0.250139623880386353 -0.16686055064201355 0.404951751232147217
-0.250175446271896362 -0.166146054863929749 0.404902487993240356
-0.250742167234420776 -0.166756987571716309 0.4089832603931427
-0.248317733407020569 -0.167707845568656921 0.411585748195648193
-0.244119569659233093 -0.175577908754348755 0.415303468704223633
-0.238110333681106567 -0.176056563854217529 0.418860137462615967
-0.238079577684402466 -0.176756158471107483 0.418909609317779541
-0.247722744941711426 -0.166188850998878479 0.411889374256134033
-0.247367039322853088 -0.166983917355537415 0.411041885614395142
-0.248069509863853455 -0.166369497776031494 0.410594344139099121
-0.248455792665481567 -0.165837779641151428 0.409252732992172241
-0.249125495553016663 -0.165933981537818909 0.408851385116577148
-0.251245349645614624 -0.164079040288925171 0.407493054866790771
-0.252402901649475098 -0.161555230617523193 0.407858490943908691
-0.275945067405700684 -0.150084629654884338 0.388168871402740479
-0.255544483661651611 -0.158968150615692139 0.406909763813018799
-0.25621458888053894 -0.159059911966323853 0.406492382287979126
-0.265777230262756348 -0.14619794487953186 0.394753456115722656
-0.272923171520233154 -0.153825819492340088 0.39024275541305542
-0.273614019155502319 -0.153916269540786743 0.3897896409034729
-0.274305403232574463 -0.154006913304328918 0.389335155487060547
-0.265485167503356934 -0.150987416505813599 0.395042657852172852
-0.266170382499694824 -0.151074200868606567 0.39460417628288269
-0.264033317565917969 -0.152275770902633667 0.396011829376220703
-0.264800399541854858 -0.150900810956954956 0.395479768514633179
-0.264074563980102539 -0.151545196771621704 0.395963519811630249
-0.264116108417510986 -0.150814414024353027 0.395915478467941284
-0.264758825302124023 -0.151632219552993774 0.39552798867225647
-0.263349562883377075 -0.152188330888748169 0.396445810794830322
-0.264842301607131958 -0.150169208645820618 0.395431846380233765
-0.263390779495239258 -0.151458367705345154 0.396397680044174194
-0.263474106788635254 -0.149997830390930176 0.396302193403244019
-0.26343226432800293 -0.150728210806846619 0.396349787712097168
-0.264157950878143311 -0.150083422660827637 0.395867705345153809
-0.254146158695220947 -0.154887616634368896 0.406630843877792358
-0.254817187786102295 -0.154975771903991699 0.406216025352478027
-0.256200075149536133 -0.154431194067001343 0.405335605144500732
-0.253281891345977783 -0.152725771069526672 0.406011343002319336
-0.24521106481552124 -0.130341663956642151 0.410519301891326904
-0.267118275165557861 -0.124006390571594238 0.393397331237792969
-0.268419206142425537 -0.127718418836593628 0.390503257513046265
-0.267718642950057983 -0.132399603724479675 0.39212644100189209
-0.268406599760055542 -0.132471144199371338 0.391680657863616943
-0.266985327005386353 -0.133066028356552124 0.392615973949432373
-0.266939729452133179 -0.133803606033325195 0.392661362886428833
-0.266252756118774414 -0.133731171488761902 0.393103957176208496
-0.265611886978149414 -0.132922589778900146 0.393500179052352905
-0.265852570533752441 -0.133577704429626465 0.39442819356918335
-0.220987692475318909 -0.147406592965126038 0.432577371597290039
-0.27221214771270752 -0.122452281415462494 0.387896269559860229
-0.411148965358734131 -0.116042591631412506 0.252802938222885132
-0.412065863609313965 -0.116116628050804138 0.252075821161270142
-0.274997353553771973 -0.154097750782966614 0.388879328966140747
-0.218851476907730103 -0.153474628925323486 0.436186879873275757
-0.218885958194732666 -0.152789577841758728 0.436147511005401611
-0.21881750226020813 -0.154159456491470337 0.436226725578308105
-0.246165007352828979 -0.13127511739730835 0.408846795558929443
-0.246834933757781982 -0.131342202425003052 0.408446133136749268
-0.23877619206905365 -0.131737783551216125 0.415465354919433594
-0.275896608829498291 -0.142419531941413879 0.385925382375717163
-0.27381095290184021 -0.142176792025566101 0.387298941612243652
-0.273116827011108398 -0.142096251249313354 0.387754052877426147
-0.274505615234375 -0.142257511615753174 0.386842489242553711
-0.273793190717697144 -0.155310899019241333 0.390759587287902832
-0.273835539817810059 -0.154572099447250366 0.390709549188613892
-0.272373169660568237 -0.155865088105201721 0.39171484112739563
-0.273751109838485718 -0.15604950487613678 0.390809893608093262
-0.273709297180175781 -0.156787887215614319 0.390860408544540405
-0.274440914392471313 -0.156142011284828186 0.390355348587036133
-0.274483054876327515 -0.155402794480323792 0.390304893255233765
-0.274399042129516602 -0.156881019473075867 0.390406042337417603
-0.274525433778762817 -0.154663369059562683 0.390254676342010498
-0.271828740835189819 -0.157898545265197754 0.393187731504440308
-0.272804975509643555 -0.160038664937019348 0.391508162021636963
-0.272034317255020142 -0.161415159702301025 0.392060339450836182
-0.272075235843658447 -0.160679295659065247 0.392009526491165161
-0.271346390247344971 -0.161318659782409668 0.392509430646896362
-0.272722780704498291 -0.161511853337287903 0.391609907150268555
-0.272763729095458984 -0.160775363445281982 0.391558915376663208
-0.273411750793457031 -0.1616087406873703 0.391158074140548706
-0.273452788591384888 -0.160871639847755432 0.391106933355331421
-0.271993666887283325 -0.16215081512928009 0.392111420631408691
-0.271953314542770386 -0.162886261940002441 0.392162740230560303
-0.272682070732116699 -0.162248119711875916 0.391661137342453003
-0.272641628980636597 -0.162984207272529602 0.391712605953216553
-0.273370981216430664 -0.162345647811889648 0.391209453344345093
-0.273330479860305786 -0.163082346320152283 0.391261100769042969
-0.271048367023468018 -0.166119813919067383 0.392801612615585327
-0.271736055612564087 -0.166220247745513916 0.392353653907775879
-0.272424250841140747 -0.166320905089378357 0.391904354095458984
-0.270361214876174927 -0.16601957380771637 0.393248200416564941
-0.273113012313842773 -0.166421771049499512 0.391453683376312256
-0.270969152450561523 -0.167587131261825562 0.392905056476593018
-0.271008610725402832 -0.166853576898574829 0.392853200435638428
-0.271696239709854126 -0.166954636573791504 0.392405390739440918
-0.271656692028045654 -0.167688816785812378 0.392457395792007446
-0.270587921142578125 -0.166668236255645752 0.394167214632034302
-0.273073047399520874 -0.167157396674156189 0.391505718231201172
-0.273033350706100464 -0.167892813682556152 0.391557991504669189
-0.270929962396621704 -0.168320491909980774 0.392957150936126709
-0.271617412567138672 -0.168422803282737732 0.392509609460830688
-0.272305399179458618 -0.16852530837059021 0.392060726881027222
-0.272993922233581543 -0.168628036975860596 0.391610503196716309
-0.270430922508239746 -0.169598773121833801 0.39437401294708252
-0.269110441207885742 -0.170789405703544617 0.39311748743057251
-0.271843284368515015 -0.173045799136161804 0.394530564546585083
-0.27372249960899353 -0.16799512505531311 0.391106247901916504
-0.273682981729507446 -0.168730974197387695 0.391158878803253174
-0.272345900535583496 -0.171770811080932617 0.393112689256668091
-0.273840755224227905 -0.161789596080780029 0.389838844537734985
-0.273881614208221436 -0.161051854491233826 0.389787226915359497
-0.273543357849121094 -0.166607066988945007 0.390138089656829834
-0.273623734712600708 -0.165133953094482422 0.390033751726150513
-0.273503571748733521 -0.16734333336353302 0.390190631151199341
-0.274412184953689575 -0.168097645044326782 0.390653133392333984
-0.273583382368087769 -0.165870606899261475 0.390085786581039429
-0.413904160261154175 -0.116265244781970978 0.250616490840911865
-0.414825588464736938 -0.116339825093746185 0.249884247779846191
-0.271911084651947021 -0.143334746360778809 0.38962891697883606
-0.271354615688323975 -0.181484773755073547 0.395084023475646973
-0.276404887437820435 -0.176766857504844666 0.388464570045471191
-0.277098298072814941 -0.176877200603485107 0.388007104396820068
-0.277792304754257202 -0.176987767219543457 0.387548297643661499
-0.278448045253753662 -0.177837267518043518 0.387143045663833618
-0.278409481048583984 -0.178575783967971802 0.387198150157928467
-0.274549633264541626 -0.173099711537361145 0.389637917280197144
-0.275241553783416748 -0.173206672072410583 0.389183700084686279
-0.273858308792114258 -0.17299295961856842 0.390090763568878174
-0.275933980941772461 -0.17331385612487793 0.388728141784667969
-0.27528044581413269 -0.172470033168792725 0.389129877090454102
-0.27735978364944458 -0.17279033362865448 0.387758731842041016
-0.274588465690612793 -0.172363683581352234 0.389584213495254517
-0.273897051811218262 -0.172257557511329651 0.390037178993225098
-0.276666104793548584 -0.172683343291282654 0.388217121362686157
-0.275972992181777954 -0.172576576471328735 0.388674169778823853
-0.27719038724899292 -0.171397209167480469 0.386794179677963257
-0.27605891227722168 -0.167097553610801697 0.387458562850952148
-0.277489513158798218 -0.166561901569366455 0.386488109827041626
-0.276793986558914185 -0.166460126638412476 0.386947393417358398
-0.278185635805130005 -0.166663870215415955 0.386027425527572632
-0.276352047920227051 -0.166274607181549072 0.388265639543533325
-0.278882324695587158 -0.166766062378883362 0.385565429925918579
-0.277280032634735107 -0.165905103087425232 0.385576725006103516
-0.276834428310394287 -0.165720328688621521 0.386894255876541138
-0.276392638683319092 -0.165535449981689453 0.388212978839874268
-0.278475284576416016 -0.165838763117790222 0.386833161115646362
-0.275190681219100952 -0.165602222084999084 0.386949539184570312
-0.278922975063323975 -0.166024357080459595 0.385511845350265503
-0.28589823842048645 -0.14422258734703064 0.377169311046600342
-0.285807132720947266 -0.145729899406433105 0.37727317214012146
-0.285852551460266113 -0.144976347684860229 0.377221137285232544
-0.267177581787109375 -0.134459853172302246 0.39358857274055481
-0.26786351203918457 -0.134533137083053589 0.393144190311431885
-0.265520989894866943 -0.134395048022270203 0.393590360879898071
-0.268549948930740356 -0.134606599807739258 0.392698407173156738
-0.276875138282775879 -0.164980307221412659 0.386841386556625366
-0.277320593595504761 -0.165164440870285034 0.385523349046707153
-0.275485455989837646 -0.164779916405677795 0.387756496667861938
-0.276179999113082886 -0.16488000750541687 0.387299627065658569
-0.27851635217666626 -0.165097504854202271 0.386780321598052979
-0.256395637989044189 -0.136137992143630981 0.401573896408081055
-0.255718827247619629 -0.13606533408164978 0.40199434757232666
-0.258428454399108887 -0.136357083916664124 0.400304079055786133
-0.259106874465942383 -0.136430487036705017 0.399877965450286865
-0.257750451564788818 -0.13628387451171875 0.400728762149810791
-0.25707283616065979 -0.136210843920707703 0.401152044534683228
-0.272774100303649902 -0.171961292624473572 0.391800105571746826
-0.272735238075256348 -0.172695443034172058 0.391853034496307373
-0.270986109972000122 -0.178733125329017639 0.393149048089981079
-0.284079462289810181 -0.139053419232368469 0.378278374671936035
-0.284126013517379761 -0.138300046324729919 0.378227889537811279
-0.282668232917785645 -0.138894632458686829 0.379228740930557251
-0.283373534679412842 -0.138973936438560486 0.378754228353500366
-0.282264143228530884 -0.133902549743652344 0.379380851984024048
-0.281513065099716187 -0.134579643607139587 0.379903316497802734
-0.281560003757476807 -0.133827731013298035 0.379853963851928711
-0.293461143970489502 -0.123559065163135529 0.367392003536224365
-0.29326280951499939 -0.126623749732971191 0.367598503828048706
-0.295183390378952026 -0.134472161531448364 0.367493957281112671
-0.289852827787399292 -0.131403326988220215 0.36906278133392334
-0.289901316165924072 -0.130641445517539978 0.369011104106903076
-0.286926388740539551 -0.131559327244758606 0.374109804630279541
-0.286878407001495361 -0.13231736421585083 0.374160319566726685
-0.286166965961456299 -0.13224327564239502 0.374642789363861084
-0.286830663681030273 -0.133075177669525146 0.37421107292175293
-0.285853147506713867 -0.129416614770889282 0.375802963972091675
-0.285648554563522339 -0.132846638560295105 0.376033425331115723
-0.286119252443313599 -0.133000448346138 0.374693304300308228
-0.29662749171257019 -0.134627014398574829 0.366493523120880127
-0.290713638067245483 -0.124740101397037506 0.370326906442642212
-0.283681035041809082 -0.129957690834999084 0.377291083335876465
-0.244499564170837402 -0.130991831421852112 0.410955816507339478
-0.282311350107192993 -0.133149772882461548 0.379331499338150024
-0.28086698055267334 -0.145135730504989624 0.380592137575149536
-0.329212218523025513 -0.126273289322853088 0.333174616098403931
-0.329812526702880859 -0.131512477993965149 0.333854705095291138
-0.26330864429473877 -0.152918070554733276 0.396494239568710327
-0.262625396251678467 -0.152830213308334351 0.396926641464233398
-0.262707412242889404 -0.151371747255325317 0.39683040976524353
-0.262666255235671997 -0.152101084589958191 0.39687839150428772
-0.262024521827697754 -0.151285320520401001 0.397261738777160645
-0.262790679931640625 -0.149912431836128235 0.396735280752182007
-0.262748897075653076 -0.15064220130443573 0.39678269624710083
-0.26206594705581665 -0.150556385517120361 0.397214204072952271
-0.261983394622802734 -0.152014032006263733 0.397309541702270508
-0.261942565441131592 -0.152742549777030945 0.397357642650604248
-0.262726753950119019 -0.128424614667892456 0.396331936120986938
-0.218637600541114807 -0.15658491849899292 0.436299651861190796
-0.259874552488327026 -0.135044395923614502 0.399362742900848389
-0.266849428415298462 -0.135278120636940002 0.392752945423126221
-0.26753687858581543 -0.135351970791816711 0.392309397459030151
-0.268224835395812988 -0.13542601466178894 0.391864478588104248
-0.386665642261505127 -0.12317889928817749 0.277628272771835327
-0.291656494140625 -0.0152786821126937866 0.366934835910797119
-0.290951073169708252 -0.015302988700568676 0.367452949285507202
-0.290427088737487793 -0.0278361160308122635 0.369172215461730957
-0.2896614670753479 -0.02863333560526371 0.369724363088607788
-0.28960031270980835 -0.029416671022772789 0.369764178991317749
-0.290304809808731079 -0.0294043198227882385 0.369252443313598633
-0.290365874767303467 -0.0286203362047672272 0.36921226978302002
-0.29024389386177063 -0.0301880650222301483 0.369292736053466797
-0.28953927755355835 -0.0301997698843479156 0.369804143905639648
-0.290183126926422119 -0.030971575528383255 0.369333148002624512
-0.290122509002685547 -0.0317548476159572601 0.369373679161071777
-0.287949621677398682 -0.0325673297047615051 0.370941638946533203
-0.28935706615447998 -0.0325476489961147308 0.369924694299697876
-0.288652956485748291 -0.0325574614107608795 0.370433807373046875
-0.259829968214035034 -0.135774344205856323 0.399406462907791138
-0.227817267179489136 -0.140390917658805847 0.426423192024230957
-0.259785711765289307 -0.136504083871841431 0.399450451135635376
-0.264484137296676636 -0.13343365490436554 0.395307719707489014
-0.264438778162002563 -0.134168535470962524 0.395352303981781006
-0.284347414970397949 -0.146311208605766296 0.378280133008956909
-0.282230347394943237 -0.146054655313491821 0.379701972007751465
-0.28364109992980957 -0.146225497126579285 0.378755450248718262
-0.282935410737991333 -0.146139979362487793 0.37922939658164978
-0.281525880098342896 -0.145969510078430176 0.380173206329345703
-0.235701262950897217 -0.133446425199508667 0.418409258127212524
-0.268976151943206787 -0.145959466695785522 0.391616970300674438
-0.284931361675262451 -0.183170720934867859 0.381880462169647217
-0.284970343112945557 -0.182426750659942627 0.381823539733886719
-0.285633623600006104 -0.183288052678108215 0.381407022476196289
-0.28567272424697876 -0.182543456554412842 0.381349951028823853
-0.28173181414604187 -0.17774122953414917 0.383916646242141724
-0.28103289008140564 -0.177629292011260986 0.384383112192153931
-0.279636889696121216 -0.177406057715415955 0.38531196117401123
-0.280334591865539551 -0.177517563104629517 0.384848207235336304
-0.285405099391937256 -0.186663657426834106 0.381607532501220703
-0.287783652544021606 -0.182894900441169739 0.379921227693557739
-0.282431334257125854 -0.177853405475616455 0.383448868989944458
-0.28161311149597168 -0.175599336624145508 0.382899999618530273
-0.283871769905090332 -0.177334427833557129 0.382453113794326782
-0.282590240240097046 -0.174881339073181152 0.38322681188583374
-0.281174123287200928 -0.171377822756767273 0.383108943700790405
-0.280473917722702026 -0.171271339058876038 0.383574962615966797
-0.311102718114852905 -0.123669363558292389 0.351025700569152832
-0.307881265878677368 -0.124248921871185303 0.352353930473327637
-0.307829707860946655 -0.12503032386302948 0.352409601211547852
-0.307871341705322266 -0.127296596765518188 0.353418678045272827
-0.27594149112701416 -0.14167514443397522 0.385876387357711792
-0.275986671447753906 -0.140930548310279846 0.385827630758285522
-0.275245696306228638 -0.141594678163528442 0.386335819959640503
-0.274550467729568481 -0.141514390707015991 0.386793851852416992
-0.278730422258377075 -0.141998931765556335 0.384025007486343384
-0.278775662183761597 -0.141251802444458008 0.383975446224212646
-0.278685450553894043 -0.142745852470397949 0.384074807167053223
-0.28076288104057312 -0.135255426168441772 0.380424201488494873
-0.280809551477432251 -0.134504362940788269 0.38037484884262085
-0.281279683113098145 -0.142406687140464783 0.381287753582000732
-0.280163705348968506 -0.145051628351211548 0.381060808897018433
-0.280714243650436401 -0.140076875686645508 0.381607145071029663
-0.281462252140045166 -0.139406576752662659 0.381086796522140503
-0.280012845993041992 -0.139997020363807678 0.382076263427734375
-0.281416237354278564 -0.140156924724578857 0.381136715412139893
-0.278057664632797241 -0.140746757388114929 0.381331592798233032
-0.281070232391357422 -0.145803287625312805 0.381504416465759277
-0.280368387699127197 -0.1457185298204422 0.381973356008529663
-0.280980914831161499 -0.147300273180007935 0.381606459617614746
-0.281025439500808716 -0.146551892161369324 0.381555318832397461
-0.28027912974357605 -0.147214233875274658 0.382075011730194092
-0.279829233884811401 -0.147046789526939392 0.3834056556224823
-0.280323624610900879 -0.146466493606567383 0.382024079561233521
-0.281727850437164307 -0.146637484431266785 0.381085216999053955
-0.282430857419967651 -0.146723270416259766 0.380613714456558228
-0.281683266162872314 -0.147386506199836731 0.381136536598205566
-0.279784917831420898 -0.147793665528297424 0.383456408977508545
-0.278789341449737549 -0.148535057902336121 0.383109867572784424
-0.280724614858627319 -0.151438787579536438 0.381871283054351807
-0.280023008584976196 -0.151349321007728577 0.382338762283325195
-0.281426846981048584 -0.151528462767601013 0.381402403116226196
-0.281470954418182373 -0.150780543684959412 0.38135075569152832
-0.279321968555450439 -0.151260048151016235 0.38280487060546875
-0.280680865049362183 -0.15218585729598999 0.38192296028137207
-0.281383037567138672 -0.152276173233985901 0.381454288959503174
-0.27997925877571106 -0.152095749974250793 0.382390290498733521
-0.282085835933685303 -0.152366667985916138 0.380984276533126831
-0.28212970495223999 -0.151618331670761108 0.380932211875915527
-0.282173812389373779 -0.150869771838188171 0.380880355834960938
-0.279278278350830078 -0.152005851268768311 0.382856220006942749
-0.28063732385635376 -0.152932718396186829 0.381974905729293823
-0.281339466571807861 -0.153023660182952881 0.381506413221359253
-0.282042205333709717 -0.153114795684814453 0.381036549806594849
-0.2799358069896698 -0.152841970324516296 0.38244202733039856
-0.279234856367111206 -0.152751430869102478 0.38290780782699585
-0.280594080686569214 -0.153679355978965759 0.38202705979347229
-0.28129616379737854 -0.153770938515663147 0.381558746099472046
-0.281998872756958008 -0.153862729668617249 0.381089061498641968
-0.279892593622207642 -0.153587982058525085 0.382494032382965088
-0.279849648475646973 -0.154333785176277161 0.382546216249465942
-0.279398709535598755 -0.154159724712371826 0.383872509002685547
-0.279441773891448975 -0.15341457724571228 0.38382074236869812
-0.279355913400650024 -0.154904648661613464 0.383924484252929688
-0.28283315896987915 -0.151708394289016724 0.380460619926452637
-0.282877326011657715 -0.150959193706512451 0.380408585071563721
-0.282502800226211548 -0.153288081288337708 0.379707783460617065
-0.282546311616897583 -0.152539283037185669 0.379655063152313232
-0.278131276369094849 -0.151744440197944641 0.384646624326705933
-0.276904404163360596 -0.148937687277793884 0.385413438081741333
-0.277645379304885864 -0.148280113935470581 0.384901106357574463
-0.276948064565658569 -0.148193776607513428 0.385362982749938965
-0.276861041784286499 -0.149681389331817627 0.385464131832122803
-0.277601689100265503 -0.149024665355682373 0.384951770305633545
-0.278431534767150879 -0.146875664591789246 0.384336948394775391
-0.277733564376831055 -0.146790385246276855 0.384800523519515991
-0.282678425312042236 -0.150291606783866882 0.37949824333190918
-0.278699874877929688 -0.154068112373352051 0.384337037801742554
-0.278087794780731201 -0.152488738298416138 0.384697586297988892
-0.277390003204345703 -0.152398794889450073 0.385159730911254883
-0.278044551610946655 -0.15323282778263092 0.384748786687850952
-0.277958929538726807 -0.15472036600112915 0.384851843118667603
-0.278001606464385986 -0.153976693749427795 0.384800195693969727
-0.278657138347625732 -0.154812410473823547 0.384388864040374756
-0.313266754150390625 -0.134292244911193848 0.348815202713012695
-0.237727031111717224 -0.132939547300338745 0.417235434055328369
-0.275526285171508789 -0.164040952920913696 0.387704133987426758
-0.277361392974853516 -0.164423584938049316 0.385470211505889893
-0.276916086673736572 -0.164240092039108276 0.386788725852966309
-0.276220917701721191 -0.164140418171882629 0.38724711537361145
-0.278557687997817993 -0.164356037974357605 0.386727690696716309
-0.279005080461502075 -0.164540350437164307 0.385405391454696655
-0.237014651298522949 -0.13475838303565979 0.419980019330978394
-0.237057030200958252 -0.134051129221916199 0.419942259788513184
-0.238852366805076599 -0.136293128132820129 0.416633307933807373
-0.240176305174827576 -0.136433333158493042 0.415863990783691406
-0.240219026803970337 -0.135722890496253967 0.415825188159942627
-0.247024178504943848 -0.139118999242782593 0.410702168941497803
-0.249079719185829163 -0.144192963838577271 0.408438265323638916
-0.245182201266288757 -0.136370360851287842 0.411769062280654907
-0.249749749898910522 -0.144271299242973328 0.408033102750778198
-0.250420093536376953 -0.144349813461303711 0.407626479864120483
-0.250378876924514771 -0.145068362355232239 0.407670140266418457
-0.250461667776107788 -0.143631055951118469 0.407583177089691162
-0.244559243321418762 -0.135584563016891479 0.41212540864944458
-0.25100862979888916 -0.145866617560386658 0.407306402921676636
-0.251049518585205078 -0.14514768123626709 0.407262265682220459
-0.251090764999389648 -0.144428521394729614 0.407218426465988159
-0.280514031648635864 -0.170528814196586609 0.383520215749740601
-0.281214326620101929 -0.170634657144546509 0.383054047822952271
-0.281874924898147583 -0.171484515070915222 0.38264155387878418
-0.281915217638015747 -0.170740723609924316 0.382586538791656494
-0.282616704702377319 -0.170846998691558838 0.382117658853530884
-0.284021556377410889 -0.171060189604759216 0.381175875663757324
-0.283318817615509033 -0.170953482389450073 0.381647437810897827
-0.277465790510177612 -0.13554595410823822 0.383675932884216309
-0.254278659820556641 -0.137369662523269653 0.402916431427001953
-0.256351649761199951 -0.136864468455314636 0.401617139577865601
