ply
format ascii 1.0
element vertex 767
comment vertices
property float x
property float y
property float z
end_header
4.58521652221679688 0.26363527774810791 0.876048028469085693
4.59484148025512695 0.278166472911834717 0.883927643299102783
4.59294748306274414 0.273809343576431274 0.884049057960510254
4.59105587005615234 0.269456595182418823 0.884170472621917725
4.58916759490966797 0.265108227729797363 0.88429182767868042
4.58332633972167969 0.259296238422393799 0.876172304153442383
4.58530950546264648 0.260031551122665405 0.880289733409881592
4.58143854141235352 0.254961550235748291 0.876296639442443848
4.60631990432739258 0.297134727239608765 0.891729950904846191
4.60441923141479492 0.292755275964736938 0.891848504543304443
4.6005854606628418 0.287638425827026367 0.887822926044464111
4.60252141952514648 0.288380205631256104 0.891967058181762695
4.61014127731323242 0.302264660596847534 0.895765721797943115
4.60824012756347656 0.297878444194793701 0.895882785320281982
4.60634183883666992 0.293496638536453247 0.89599984884262085
4.6044464111328125 0.289119184017181396 0.896116912364959717
4.61964797973632812 0.316947102546691895 0.903749048709869385
4.61394882202148438 0.307400792837142944 0.899810194969177246
4.61585330963134766 0.311798125505447388 0.899694502353668213
4.59868812561035156 0.283270120620727539 0.887942969799041748
4.59679317474365234 0.278906196355819702 0.888062894344329834
4.62155580520629883 0.321355521678924561 0.903634846210479736
4.62152481079101562 0.317691415548324585 0.907924950122833252
4.63668489456176758 0.345728039741516113 0.915634512901306152
4.63549137115478516 0.354903101921081543 0.906770884990692139
4.63925504684448242 0.360108643770217896 0.91085052490234375
4.64117717742919922 0.364558756351470947 0.910738646984100342
4.61570978164672852 0.344250261783599854 0.877362430095672607
4.60992813110351562 0.334659576416015625 0.873475492000579834
4.60801029205322266 0.33026161789894104 0.873601436614990234
4.62148141860961914 0.353865057229995728 0.881261110305786133
4.60034418106079102 0.342115134000778198 0.870995640754699707
4.60610675811767578 0.351688981056213379 0.874865889549255371
4.59313106536865234 0.341532260179519653 0.85844498872756958
4.60605430603027344 0.329484283924102783 0.869472980499267578
4.63220119476318359 0.326922178268432617 0.920524537563323975
4.62845516204833984 0.321761041879653931 0.916436553001403809
4.61711597442626953 0.302652060985565186 0.908510565757751465
4.63309717178344727 0.314475566148757935 0.910440683364868164
4.64539957046508789 0.321213603019714355 0.908285319805145264
4.61521673202514648 0.298256427049636841 0.908622801303863525
4.57755517959594727 0.249898269772529602 0.872312426567077637
4.57955408096313477 0.250631213188171387 0.876420855522155762
4.59490156173706055 0.274546653032302856 0.88818281888961792
4.61143112182617188 0.293133199214935303 0.90456467866897583
4.60062646865844727 0.28400951623916626 0.892085552215576172
4.63029623031616211 0.322497904300689697 0.920632421970367432
4.62655019760131836 0.317343354225158691 0.91654592752456665
4.57567119598388672 0.245574817061424255 0.872438132762908936
4.62839365005493164 0.318078041076660156 0.920740306377410889
4.63616085052490234 0.305984616279602051 0.923525869846343994
4.63635730743408203 0.312884718179702759 0.938197731971740723
4.64403343200683594 0.296998292207717896 0.945381104946136475
4.62672901153564453 0.291287034749984741 0.915444314479827881
4.63525199890136719 0.322131872177124023 0.929299294948577881
4.63705968856811523 0.322859019041061401 0.933513283729553223
4.61268472671508789 0.283973008394241333 0.913380563259124756
4.6107940673828125 0.279590070247650146 0.913490891456604004
4.60890674591064453 0.275211483240127563 0.913601160049438477
4.61390113830566406 0.274784356355667114 0.922212958335876465
4.61376571655273438 0.317565083503723145 0.872079730033874512
4.60254764556884766 0.311882674694061279 0.855476260185241699
4.60062503814697266 0.307501673698425293 0.855609774589538574
4.60648202896118164 0.31705021858215332 0.859459757804870605
4.60455846786499023 0.312662273645401001 0.859591841697692871
4.60263824462890625 0.308278828859329224 0.859723806381225586
4.59294891357421875 0.319386988878250122 0.853062987327575684
4.58922481536865234 0.301809310913085938 0.839139640331268311
4.58730363845825195 0.297449856996536255 0.839279592037200928
4.59667825698852539 0.302347689867019653 0.851636946201324463
4.58767557144165039 0.298300176858901978 0.820527315139770508
4.58331060409545898 0.292310357093811035 0.83534318208694458
4.58538484573364258 0.293094903230667114 0.839419424533843994
4.57760858535766602 0.283651143312454224 0.812865614891052246
4.57198619842529297 0.283859431743621826 0.804588139057159424
4.58338451385498047 0.279867202043533325 0.82538837194442749
4.58531093597412109 0.284215718507766724 0.825242221355438232
4.56402969360351562 0.2700844407081604 0.801028311252593994
4.57526826858520508 0.269615471363067627 0.817566812038421631
4.57933282852172852 0.274737745523452759 0.821472764015197754
4.56595373153686523 0.274402797222137451 0.800872445106506348
4.57741022109985352 0.270400911569595337 0.821620285511016846
4.57334661483764648 0.265285849571228027 0.817715823650360107
4.58146142959594727 0.275523185729980469 0.825534343719482422
4.57954120635986328 0.271183669567108154 0.825680315494537354
4.5880589485168457 0.329327881336212158 0.840089678764343262
4.60767459869384766 0.327781558036804199 0.835983514785766602
4.59839773178100586 0.323574990034103394 0.804866671562194824
4.6006312370300293 0.325169414281845093 0.790148317813873291
4.59015607833862305 0.313164710998535156 0.797079026699066162
4.58477401733398438 0.322964638471603394 0.784273147583007812
4.58256387710571289 0.322118878364562988 0.78025507926940918
4.58452463150024414 0.326483994722366333 0.780089080333709717
4.56647634506225586 0.310309886932373047 0.778975903987884521
4.57379007339477539 0.241255715489387512 0.872563779354095459
4.56997299194335938 0.227393060922622681 0.854440867900848389
4.56754827499389648 0.28969651460647583 0.759039700031280518
4.58968734741210938 0.28811722993850708 0.777149796485900879
4.58741903305053711 0.287286072969436646 0.773126602172851562
4.56559085845947266 0.285367846488952637 0.759214878082275391
4.57581949234008789 0.236756548285484314 0.85826486349105835
4.57203912734985352 0.22812633216381073 0.858528375625610352
4.61387395858764648 0.27111053466796875 0.926508843898773193
4.61201572418212891 0.270403087139129639 0.922319889068603516
4.61014652252197266 0.269692867994308472 0.918136417865753174
4.32134485244750977 -0.37964552640914917 0.937929689884185791
4.31925106048583984 -0.37990105152130127 0.933988749980926514
4.31714725494384766 -0.380156815052032471 0.930053830146789551
4.31978559494018555 -0.383426040410995483 0.93802720308303833
4.3374629020690918 -0.371518522500991821 0.943898141384124756
4.32081460952758789 -0.376120775938034058 0.933890163898468018
4.33380746841430664 -0.375582754611968994 0.940029919147491455
4.33233118057250977 -0.366440057754516602 0.931735217571258545
4.33390665054321289 -0.362638652324676514 0.931635200977325439
4.33695411682128906 -0.367975413799285889 0.939835309982299805
4.33600807189941406 -0.362367987632751465 0.935590147972106934
4.33903646469116211 -0.367709904909133911 0.943802058696746826
4.32652091979980469 -0.370766907930374146 0.923948526382446289
4.3228144645690918 -0.374816417694091797 0.920118212699890137
4.32864475250244141 -0.370502442121505737 0.927888810634613037
4.32438755035400391 -0.371031641960144043 0.920014381408691406
4.32809591293334961 -0.366975516080856323 0.923846006393432617
4.33021831512451172 -0.366707652807235718 0.927787542343139648
4.33179521560668945 -0.362909644842147827 0.92768627405166626
4.34125518798828125 -0.354471743106842041 0.93935626745223999
4.32596302032470703 -0.367243677377700806 0.919910609722137451
4.3333745002746582 -0.359108418226242065 0.927585065364837646
4.33916568756103516 -0.354748815298080444 0.93539273738861084
4.33548498153686523 -0.358834058046340942 0.931535243988037109
4.3370661735534668 -0.3550262451171875 0.931435286998748779
4.32224369049072266 -0.37129664421081543 0.916086494922637939
4.31851530075073242 -0.375339776277542114 0.912271082401275635
4.32067012786865234 -0.375077992677688599 0.916191518306732178
4.31909894943237305 -0.378856122493743896 0.916296601295471191
4.31477785110473633 -0.379373043775558472 0.908464491367340088
4.33397531509399414 -0.349715530872344971 0.923251867294311523
4.33184671401977539 -0.349998563528060913 0.919312536716461182
4.34587574005126953 -0.385579168796539307 0.968463897705078125
4.34789085388183594 -0.385330945253372192 0.97246861457824707
4.3445439338684082 -0.376368582248687744 0.960100948810577393
4.3461151123046875 -0.372549563646316528 0.960010051727294922
4.34768915176391602 -0.368727356195449829 0.959919273853302002
4.36718225479125977 -0.369462311267852783 0.978497147560119629
4.36917352676391602 -0.369201451539993286 0.982534229755401611
4.35502195358276367 -0.377173453569412231 0.980325996875762939
4.34359598159790039 -0.398864984512329102 0.972919940948486328
4.36170434951782227 -0.390534102916717529 0.983150124549865723
4.36432409286499023 -0.364050030708312988 0.970158278942108154
4.36027097702026367 -0.364582538604736328 0.962123274803161621
4.34837245941162109 -0.359268277883529663 0.95555347204208374
4.34995174407958984 -0.355440139770507812 0.955461263656616211
4.34283733367919922 -0.350653976202011108 0.939258873462677002
4.34333419799804688 -0.354194998741149902 0.94332575798034668
4.34491539001464844 -0.350373893976211548 0.943229556083679199
4.34698343276977539 -0.35009416937828064 0.947206258773803711
4.34649896621704102 -0.34654960036277771 0.94313347339630127
4.35062265396118164 -0.345983892679214478 0.951095163822174072
4.34856605529785156 -0.346266567707061768 0.947111368179321289
4.35220718383789062 -0.342149734497070312 0.951001584529876709
4.35015153884887695 -0.342435687780380249 0.947016596794128418
4.37309026718139648 -0.351938188076019287 0.977959156036376953
4.36459207534790039 -0.350958257913589478 0.961658120155334473
4.3750767707824707 -0.351663380861282349 0.982000172138214111
4.3392643928527832 -0.341808557510375977 0.926994681358337402
4.3682103157043457 -0.346824347972869873 0.965585887432098389
4.37666606903076172 -0.3477935791015625 0.981915891170501709
4.36618280410766602 -0.347104966640472412 0.961567342281341553
4.35379457473754883 -0.338312357664108276 0.950908124446868896
4.35425281524658203 -0.341864168643951416 0.954992473125457764
4.37541627883911133 -0.338528543710708618 0.973466157913208008
4.37985324859619141 -0.340044260025024414 0.981747627258300781
4.37825822830200195 -0.343920528888702393 0.981831729412078857
4.37701225280761719 -0.334655821323394775 0.973379313945770264
4.37900447845458984 -0.334366738796234131 0.977418601512908936
4.38209342956542969 -0.335089147090911865 0.96360468864440918
4.32144975662231445 -0.419434070587158203 0.945505380630493164
4.35607671737670898 -0.336974352598190308 0.937003910541534424
4.35397958755493164 -0.337266594171524048 0.93302619457244873
4.31822824478149414 -0.439934194087982178 0.954081833362579346
4.60890769958496094 0.278868764638900757 0.909317493438720703
4.60701799392700195 0.274492532014846802 0.909429252147674561
4.61013364791870117 0.266026109457015991 0.922426879405975342
4.6082615852355957 0.265318214893341064 0.918244898319244385
4.32409095764160156 -0.369995146989822388 0.902308464050292969
4.32567405700683594 -0.366209506988525391 0.902198135852813721
4.33158016204833984 -0.348973602056503296 0.901577115058898926
4.33317375183105469 -0.34517204761505127 0.901466667652130127
4.33752346038818359 -0.344593018293380737 0.909321844577789307
4.32400608062744141 -0.357126414775848389 0.893976092338562012
4.33535385131835938 -0.344882339239120483 0.905391097068786621
4.32620906829833984 -0.356846511363983154 0.897883892059326172
4.32241916656494141 -0.360911190509796143 0.894089162349700928
4.32779741287231445 -0.353055000305175781 0.897772073745727539
4.32559585571289062 -0.353338420391082764 0.893863022327423096
4.3217930793762207 -0.357406646013259888 0.890074729919433594
4.3202056884765625 -0.361187875270843506 0.890189051628112793
4.31862115859985352 -0.364965856075286865 0.890303432941436768
4.32338380813598633 -0.353622138500213623 0.88996046781539917
4.33875846862792969 -0.339763432741165161 0.891449570655822754
4.33911800384521484 -0.340781271457672119 0.90921396017074585
4.34071540832519531 -0.336966216564178467 0.909106075763702393
4.33694934844970703 -0.341074049472808838 0.905281901359558105
4.33270168304443359 -0.344158560037612915 0.883742928504943848
4.3311004638671875 -0.347957611083984375 0.883860111236572266
4.33814334869384766 -0.336250424385070801 0.887418568134307861
4.33691120147705078 -0.328180760145187378 0.896921038627624512
4.33493375778198242 -0.343865543603897095 0.88765031099319458
4.34638023376464844 -0.331529408693313599 0.899075448513031006
4.34418106079101562 -0.331831812858581543 0.89514470100402832
4.3436741828918457 -0.330825448036193848 0.87736964225769043
4.34141254425048828 -0.331131875514984131 0.873462975025177002
4.33979654312133789 -0.334945350885391235 0.873584330081939697
4.34303140640258789 -0.327315062284469604 0.873341679573059082
4.34529209136962891 -0.327005058526992798 0.877249598503112793
4.3199005126953125 -0.335549145936965942 0.873589694499969482
4.33383035659790039 -0.352228879928588867 0.874244391918182373
4.33909702301025391 -0.327875494956970215 0.90084308385848999
4.34127235412597656 -0.327570706605911255 0.904771506786346436
4.34343767166137695 -0.327266305685043335 0.908706247806549072
4.33963108062744141 -0.318495184183120728 0.896515250205993652
4.33743810653686523 -0.318809092044830322 0.892598152160644531
4.33583307266235352 -0.322622597217559814 0.892711520195007324
4.34503984451293945 -0.323441833257675171 0.908598184585571289
4.34447240829467773 -0.332848608493804932 0.912939071655273438
4.34719419479370117 -0.323134452104568481 0.912540555000305176
4.34879779815673828 -0.319303274154663086 0.912433743476867676
4.35040473937988281 -0.315468758344650269 0.912326991558074951
4.3466191291809082 -0.332549750804901123 0.916886210441589355
4.35094118118286133 -0.318992942571640015 0.916383624076843262
4.35254669189453125 -0.315155029296875 0.91627812385559082
4.34691333770751953 -0.323181301355361938 0.877129554748535156
4.35078620910644531 -0.319037497043609619 0.880926787853240967
4.34916305541992188 -0.322868168354034424 0.881045520305633545
4.32480621337890625 -0.339493215084075928 0.867884397506713867
4.32320213317871094 -0.3432808518409729 0.86800694465637207
4.34127664566040039 -0.340488851070404053 0.91315227746963501
4.3487553596496582 -0.332251310348510742 0.920839607715606689
4.35775041580200195 -0.306137382984161377 0.90216362476348877
4.35556793212890625 -0.3064613938331604 0.898219883441925049
4.34342002868652344 -0.314357995986938477 0.900327861309051514
4.35613203048706055 -0.309983402490615845 0.902274489402770996
4.35394811630249023 -0.310303986072540283 0.898332059383392334
4.35992288589477539 -0.305813848972320557 0.906113743782043457
4.33904600143432617 -0.314992249011993408 0.892484724521636963
4.35175466537475586 -0.310625046491622925 0.894396007061004639
4.35937166213989258 -0.302287966012954712 0.902052760124206543
4.36695146560668945 -0.293912053108215332 0.909745395183563232
4.34176063537597656 -0.30529862642288208 0.892075717449188232
4.37162685394287109 -0.307317674160003662 0.908388912677764893
4.34556150436401367 -0.301143258810043335 0.89588320255279541
4.36370420455932617 -0.301634639501571655 0.909961879253387451
4.36154317855834961 -0.301961034536361694 0.906004190444946289
4.35419797897338867 -0.298369884490966797 0.90776360034942627
4.33960247039794922 -0.322067379951477051 0.865247249603271484
4.32784509658813477 -0.334412246942520142 0.853988230228424072
4.33569240570068359 -0.326192528009414673 0.861484825611114502
4.34350395202636719 -0.317932099103927612 0.869019091129302979
4.33177328109741211 -0.330307513475418091 0.857731819152832031
4.34122514724731445 -0.318251490592956543 0.865123093128204346
4.34783697128295898 -0.318366885185241699 0.859237253665924072
4.33108139038085938 -0.326819062232971191 0.853732168674468994
4.32971906661987305 -0.343451529741287231 0.862159073352813721
4.3362579345703125 -0.343623191118240356 0.856285750865936279
4.34046792984008789 -0.344094902276992798 0.846505820751190186
4.31996345520019531 -0.342590808868408203 0.846529662609100342
4.32157564163208008 -0.338809967041015625 0.846399068832397461
4.33760547637939453 -0.326954782009124756 0.847843587398529053
4.32319116592407227 -0.335025757551193237 0.846268415451049805
4.33524799346923828 -0.342632085084915161 0.838597953319549561
4.33687734603881836 -0.338831037282943726 0.838463068008422852
4.33850955963134766 -0.335026592016220093 0.838328182697296143
4.32765913009643555 -0.356594204902648926 0.866585731506347656
4.32994699478149414 -0.356310009956359863 0.870472192764282227
4.33187770843505859 -0.357079952955245972 0.856839835643768311
4.34512853622436523 -0.314109206199645996 0.868896245956420898
4.34739589691162109 -0.313786715269088745 0.872800290584564209
4.34965372085571289 -0.31346467137336731 0.876711070537567139
4.35127925872802734 -0.309631288051605225 0.8765907883644104
4.35290813446044922 -0.30579453706741333 0.876470506191253662
4.36285066604614258 -0.300717920064926147 0.856538534164428711
4.35452175140380859 -0.304483175277709961 0.8625832200050354
4.36052989959716797 -0.301055669784545898 0.852632522583007812
4.36120271682739258 -0.304567724466323853 0.856667160987854004
4.35616064071655273 -0.300642013549804688 0.862457334995269775
4.35888051986694336 -0.304901808500289917 0.852762520313262939
4.35723495483398438 -0.308744490146636963 0.852892458438873291
4.34637641906738281 -0.299939334392547607 0.8467140793800354
4.3645014762878418 -0.296864688396453857 0.856409847736358643
4.35780239105224609 -0.296797454357147217 0.862331509590148926
4.35944700241088867 -0.292949408292770386 0.862205624580383301
4.35034418106079102 -0.295766860246658325 0.850465238094329834
4.37985372543334961 -0.292031258344650269 0.862106680870056152
4.35430240631103516 -0.291584193706512451 0.854225993156433105
4.38151693344116211 -0.288151443004608154 0.861979186534881592
4.35825204849243164 -0.287391424179077148 0.857996284961700439
4.36261367797851562 -0.287788599729537964 0.848165452480316162
4.36008882522583008 -0.296458005905151367 0.866242706775665283
4.36236476898193359 -0.296119093894958496 0.870160698890686035
4.35844802856445312 -0.300306171178817749 0.86636728048324585
4.36400747299194336 -0.292263925075531006 0.870037436485290527
4.3662724494934082 -0.291922032833099365 0.873963534832000732
4.36565303802490234 -0.288405328989028931 0.869914233684539795
4.36791706085205078 -0.288059860467910767 0.873841583728790283
4.36956453323364258 -0.284194231033325195 0.873719632625579834
4.37017107009887695 -0.287714987993240356 0.877775669097900391
4.37181758880615234 -0.283845841884613037 0.877655029296875
4.35131978988647461 -0.30385059118270874 0.840919554233551025
4.35296773910522461 -0.30001598596572876 0.840785384178161621
4.35461854934692383 -0.296177923679351807 0.840651154518127441
4.3575286865234375 -0.313344985246658325 0.839294612407684326
4.35515117645263672 -0.313674449920654297 0.83541107177734375
4.33841514587402344 -0.308253556489944458 0.839240550994873047
4.33605670928955078 -0.308587014675140381 0.835382997989654541
4.33769512176513672 -0.304775387048721313 0.835247695446014404
4.33442115783691406 -0.312395215034484863 0.835518300533294678
4.33205175399780273 -0.312725454568862915 0.831669151782989502
4.32597970962524414 -0.303321182727813721 0.833295524120330811
4.36124134063720703 -0.296246707439422607 0.834693670272827148
4.35185050964355469 -0.321337461471557617 0.835684478282928467
4.3470616340637207 -0.321982741355895996 0.827944278717041016
4.34376955032348633 -0.329616934061050415 0.828222990036010742
4.34541416168212891 -0.325801581144332886 0.828083634376525879
4.34135866165161133 -0.329932659864425659 0.824366390705108643
4.34300422668457031 -0.326121062040328979 0.824225723743438721
4.36527633666992188 -0.292047172784805298 0.838445723056793213
4.35719680786132812 -0.300435841083526611 0.830951452255249023
4.37346696853637695 -0.279973238706588745 0.877534389495849609
4.33971643447875977 -0.333740830421447754 0.824506998062133789
4.34621143341064453 -0.333894520998001099 0.818541467189788818
4.34786272048950195 -0.330078065395355225 0.818397939205169678
4.3243865966796875 -0.338308036327362061 0.819072961807250977
4.3437657356262207 -0.334207892417907715 0.814691424369812012
4.34541797637939453 -0.330395281314849854 0.814546585083007812
4.3650212287902832 -0.28381115198135376 0.883545935153961182
4.35583877563476562 -0.338023513555526733 0.954900205135345459
4.36105155944824219 -0.330037504434585571 0.958716273307800293
4.35946083068847656 -0.33388790488243103 0.958807170391082764
4.36307287216186523 -0.329742997884750366 0.962722480297088623
4.65415525436401367 0.325512111186981201 0.944518446922302246
4.65606498718261719 0.32996976375579834 0.944418668746948242
4.35467863082885742 -0.314841806888580322 0.92023545503616333
4.39334201812744141 -0.326136738061904907 0.979622423648834229
4.39173507690429688 -0.330034762620925903 0.979707837104797363
4.37861061096191406 -0.330779820680618286 0.973292529582977295
4.37152242660522461 -0.330647051334381104 0.97900390625
4.40540313720703125 -0.331388980150222778 0.986380577087402344
4.42072439193725586 -0.313385963439941406 0.984164893627166748
4.38093948364257812 -0.317354291677474976 0.968794763088226318
4.46686363220214844 -0.261617720127105713 0.996104538440704346
4.45753192901611328 -0.265667051076889038 1.00200057029724121
4.45919275283813477 -0.261659026145935059 1.00192117691040039
4.47130346298217773 -0.247432306408882141 0.995642125606536865
4.48969411849975586 -0.2304353266954422 0.997804224491119385
4.49052143096923828 -0.220569640398025513 0.993239164352416992
4.49835920333862305 -0.220423221588134766 0.987349450588226318
4.4815216064453125 -0.233473718166351318 0.985153257846832275
4.47965049743652344 -0.211640298366546631 0.986221730709075928
4.51188278198242188 -0.193019896745681763 0.995004475116729736
4.51304340362548828 -0.143468260765075684 0.982537627220153809
4.51477384567260742 -0.139351323246955872 0.982451200485229492
4.53360891342163086 -0.12155596911907196 0.984555602073669434
4.30533027648925781 -0.440159916877746582 0.947886049747467041
4.30597591400146484 -0.430799663066864014 0.94357609748840332
4.29883527755737305 -0.426910936832427979 0.945204436779022217
4.30443906784057617 -0.434546947479248047 0.943672120571136475
4.57303190231323242 0.263913899660110474 0.765967607498168945
4.57498884201049805 0.268244951963424683 0.765794694423675537
4.56876373291015625 0.258765846490859985 0.762148618698120117
4.56681060791015625 0.254446983337402344 0.762322962284088135
4.57072019577026367 0.263089299201965332 0.761974155902862549
4.59253740310668945 0.261968016624450684 0.761408388614654541
4.56486034393310547 0.250132739543914795 0.762497127056121826
4.56058216094970703 0.245007902383804321 0.758691549301147461
4.56820201873779297 0.246235951781272888 0.752248227596282959
4.55629253387451172 0.239891186356544495 0.754896461963653564
4.29247617721557617 -0.428937554359436035 0.902325332164764404
4.31103134155273438 -0.383396357297897339 0.904666781425476074
4.56744384765625 0.204060643911361694 0.774489700794219971
4.581207275390625 0.211755380034446716 0.757223367691040039
4.58317422866821289 0.21607951819896698 0.757044732570648193
4.55898523330688477 0.180737748742103577 0.775514841079711914
4.55470609664916992 0.175701811909675598 0.771686553955078125
4.55705642700195312 0.176461189985275269 0.775683403015136719
4.55277872085571289 0.171432897448539734 0.77185666561126709
4.55513095855712891 0.172189131379127502 0.775851845741271973
4.54848957061767578 0.16641312837600708 0.768040299415588379
4.55085420608520508 0.167168468236923218 0.772026598453521729
4.5560612678527832 0.167450115084648132 0.761623680591583252
4.55412626266479492 0.16318202018737793 0.761798739433288574
4.54656648635864258 0.162156373262405396 0.768211722373962402
4.5497899055480957 0.158161953091621399 0.757995128631591797
4.53240776062011719 0.155399098992347717 0.766824483871459961
4.53712749481201172 0.156893149018287659 0.774762630462646484
4.58978033065795898 0.235280603170394897 0.756155192852020264
4.54544258117675781 0.153150692582130432 0.754202127456665039
4.54569673538208008 0.162785425782203674 0.749713420867919922
4.53795623779296875 0.15215812623500824 0.760613560676574707
4.53747034072875977 0.149286046624183655 0.746301949024200439
4.53695106506347656 0.152762249112129211 0.742175877094268799
4.53502130508422852 0.1485261470079422 0.742358803749084473
4.53363466262817383 0.147172123193740845 0.756830275058746338
4.53309440612792969 0.144294559955596924 0.74254155158996582
4.53063297271728516 0.143535852432250977 0.738607704639434814
4.54158735275268555 0.144659072160720825 0.754557788372039795
4.5289158821105957 0.148887678980827332 0.734335780143737793
4.54512739181518555 0.159886866807937622 0.735382556915283203
4.53856515884399414 0.141017690300941467 0.736289441585540771
4.35248088836669922 -0.328118026256561279 0.924696385860443115
4.58859729766845703 0.255298912525177002 0.888896822929382324
4.59048271179199219 0.259643375873565674 0.888777375221252441
4.59237098693847656 0.263992220163345337 0.888657867908477783
4.54572486877441406 0.171663492918014526 0.829740226268768311
4.54786443710327148 0.17318427562713623 0.815189480781555176
4.54384469985961914 0.16740986704826355 0.829883337020874023
4.54196834564208984 0.163160562515258789 0.830026388168334961
4.53978300094604492 0.162447676062583923 0.825992763042449951
4.53570938110351562 0.157493412494659424 0.822111904621124268
4.53790712356567383 0.158205628395080566 0.826137304306030273
4.55381488800048828 0.181625768542289734 0.837553143501281738
4.53972244262695312 0.161621168255805969 0.844556033611297607
4.54558372497558594 0.170822277665138245 0.848336875438690186
4.54583454132080078 0.167269930243492126 0.852530717849731445
4.5476994514465332 0.171525508165359497 0.85239720344543457
4.5437169075012207 0.166569516062736511 0.848471939563751221
4.54956722259521484 0.175785377621650696 0.85226362943649292
4.54980373382568359 0.172226414084434509 0.856463849544525146
4.55166959762573242 0.176489070057868958 0.856331825256347656
4.55353832244873047 0.180756017565727234 0.856199681758880615
4.55540990829467773 0.185027256608009338 0.856067478656768799
4.54930925369262695 0.162507042288780212 0.861013174057006836
4.55117225646972656 0.166765987873077393 0.860882997512817383
4.55303764343261719 0.171029210090637207 0.860752761363983154
4.55562782287597656 0.181460127234458923 0.860275685787200928
4.53785943984985352 0.157379820942878723 0.844692468643188477
4.53571653366088867 0.156680524349212646 0.840649604797363281
4.54323720932006836 0.156871795654296875 0.85300910472869873
4.54137611389160156 0.15262700617313385 0.853142201900482178
4.53951835632324219 0.148386478424072266 0.85327523946762085
4.55303716659545898 0.179836422204971313 0.874860405921936035
4.54299354553222656 0.143603235483169556 0.861747682094573975
4.55489587783813477 0.184106200933456421 0.874736130237579346
4.56124496459960938 0.194295018911361694 0.859883546829223633
4.53961658477783203 0.163224667310714722 0.807451367378234863
4.52753210067749023 0.133645668625831604 0.841543376445770264
4.53153896331787109 0.138551443815231323 0.845444560050964355
4.52736473083496094 0.132786035537719727 0.860067605972290039
4.53505611419677734 0.133778020739555359 0.853884220123291016
4.52968597412109375 0.134329423308372498 0.845580458641052246
4.54114055633544922 0.139363527297973633 0.861877381801605225
4.53517436981201172 0.134630396962165833 0.835319578647613525
4.53331089019775391 0.130404263734817505 0.835460186004638672
4.52567958831787109 0.129430800676345825 0.841680705547332764
4.52783584594726562 0.130111619830131531 0.845716297626495361
4.52747392654418945 0.134458363056182861 0.823038399219512939
4.52560949325561523 0.130243122577667236 0.823183774948120117
4.53145074844360352 0.126182392239570618 0.835600674152374268
4.52925825119018555 0.125497549772262573 0.831569135189056396
4.52341270446777344 0.127901226282119751 0.856151103973388672
4.53447484970092773 0.146529480814933777 0.775275647640228271
4.52945327758789062 0.135932266712188721 0.808557748794555664
4.53257083892822266 0.142299696803092957 0.775442898273468018
4.530670166015625 0.138074323534965515 0.775610029697418213
4.54607963562011719 0.129647910594940186 0.785891711711883545
4.54040002822875977 0.132927685976028442 0.792085170745849609
4.52865409851074219 0.127034440636634827 0.794575214385986328
4.50505828857421875 0.125611931085586548 0.776722311973571777
4.51663827896118164 0.131455302238464355 0.774192154407501221
4.52421855926513672 0.11930730938911438 0.776454508304595947
4.52611112594604492 0.123517066240310669 0.776287972927093506
4.52232837677001953 0.115101933479309082 0.776620924472808838
4.52546358108520508 0.111077763140201569 0.766474545001983643
4.52815628051757812 0.114608481526374817 0.784747302532196045
4.52736330032348633 0.11528642475605011 0.766303122043609619
4.5292668342590332 0.119499489665031433 0.76613163948059082
4.52356672286987305 0.106873504817485809 0.766645848751068115
4.52626848220825195 0.110399074852466583 0.784910261631011963
4.53049945831298828 0.115315690636634827 0.788732826709747314
4.53661012649536133 0.124465517699718475 0.792405605316162109
4.53471946716308594 0.120240993797779083 0.792565643787384033
4.52921962738037109 0.124658688902854919 0.850100576877593994
4.52157402038574219 0.123694092035293579 0.85628199577331543
4.538665771484375 0.118281662464141846 0.749374985694885254
4.54444551467895508 0.1309843510389328 0.748833239078521729
4.5208888053894043 0.119226813316345215 0.754109859466552734
4.51922702789306641 0.124599084258079529 0.749831318855285645
4.53094482421875 0.130470961332321167 0.747190475463867188
4.53812217712402344 0.121773146092891693 0.745239853858947754
4.53835010528564453 0.13140086829662323 0.740762710571289062
4.53642177581787109 0.12717089056968689 0.740946769714355469
4.53586673736572266 0.130650416016578674 0.736821949481964111
4.53393650054931641 0.126423835754394531 0.737007677555084229
4.54782342910766602 0.113759711384773254 0.747241020202636719
4.52368831634521484 0.12436184287071228 0.860326409339904785
4.52502584457397461 0.118900813162326813 0.864718198776245117
4.52712106704711914 0.119560353457927704 0.868775486946105957
4.529205322265625 0.120217747986316681 0.872839093208312988
4.53287410736083984 0.128654435276985168 0.872589707374572754
4.53103828430175781 0.124434009194374084 0.872714400291442871
4.52319192886352539 0.114694416522979736 0.864845752716064453
4.52528905868530273 0.115351095795631409 0.868901610374450684
4.51925086975097656 0.109836272895336151 0.860925197601318359
4.52136087417602539 0.11049218475818634 0.864973306655883789
4.51180315017700195 0.109773330390453339 0.848613560199737549
4.51363706588745117 0.113962084054946899 0.848479866981506348
4.51529788970947266 0.104985989630222321 0.857013940811157227
4.51742076873779297 0.105641089379787445 0.861054182052612305
4.51953268051147461 0.106294110417366028 0.865100741386413574
4.51346921920776367 0.100797876715660095 0.857144296169281006
4.51133394241333008 0.10014362633228302 0.853111922740936279
4.51559352874755859 0.101450063288211823 0.861183106899261475
4.50553083419799805 0.091135367751121521 0.849352598190307617
4.50768089294433594 0.0917857438325881958 0.853375554084777832
4.5095057487487793 0.0959626138210296631 0.853243768215179443
4.5169224739074707 0.0959807112812995911 0.865567266941070557
4.51327753067016602 0.0876099094748497009 0.865821421146392822
4.50154495239257812 0.0863162055611610413 0.845470786094665527
4.51509857177734375 0.0917932465672492981 0.865694344043731689
4.51115703582763672 0.086969621479511261 0.861778974533081055
4.50720357894897461 0.0821539983153343201 0.857872903347015381
4.51293659210205078 0.0788306295871734619 0.851848483085632324
4.50538492202758789 0.0779847949743270874 0.858002781867980957
4.50883960723876953 0.0731435790657997131 0.866412460803985596
4.510955810546875 0.0737719759345054626 0.870458543300628662
4.51720619201660156 0.0924344286322593689 0.869744539260864258
4.50489664077758789 0.068347536027431488 0.862500846385955811
4.50464153289794922 0.0674462020397186279 0.880952835083007812
4.49895286560058594 0.0585156157612800598 0.87714850902557373
4.50127363204956055 0.06002846360206604 0.862756967544555664
4.50284004211425781 0.0632850378751754761 0.881073236465454102
4.50104141235351562 0.0591279193758964539 0.881193637847900391
4.50521421432495117 0.0648103803396224976 0.86666572093963623
4.4991302490234375 0.0594051070511341095 0.85872805118560791
4.49732112884521484 0.0552547015249729156 0.858857452869415283
4.49516582489013672 0.0546324625611305237 0.854836463928222656
4.50893831253051758 0.0740148276090621948 0.847952127456665039
4.49551534652709961 0.0511083714663982391 0.858986854553222656
4.49335765838623047 0.0504891611635684967 0.854967296123504639
4.49118995666503906 0.0498680807650089264 0.850954234600067139
4.50851821899414062 0.0722304955124855042 0.884888052940368652
4.51418924331665039 0.0812017321586608887 0.88871467113494873
4.51238298416137695 0.0770226344466209412 0.888832271099090576
4.51057958602905273 0.0728476047515869141 0.888949811458587646
4.5162358283996582 0.0818225443363189697 0.892785370349884033
4.51443195343017578 0.0776406079530715942 0.89290153980255127
4.51263046264648438 0.0734627246856689453 0.893017709255218506
4.51804304122924805 0.0860085412859916687 0.892669200897216797
4.51566410064697266 0.0721276551485061646 0.897313237190246582
4.50877904891967773 0.0686766207218170166 0.889067351818084717
4.51001977920532227 0.0631685033440589905 0.893469333648681641
4.51206398010253906 0.0637749210000038147 0.897541999816894531
4.51386260986328125 0.0679492652416229248 0.897427678108215332
4.51409769058227539 0.0643793866038322449 0.901620745658874512
4.51589441299438477 0.068556569516658783 0.901507794857025146
4.5061650276184082 0.0583955608308315277 0.889519870281219482
4.50436878204345703 0.0542350076138973236 0.8896370530128479
4.50822210311889648 0.059001043438911438 0.893585085868835449
4.50642776489257812 0.0548376068472862244 0.893700838088989258
4.5102686882019043 0.059604596346616745 0.897656381130218506
4.50257492065429688 0.0500784814357757568 0.889754235744476318
4.5005030632019043 0.0494768843054771423 0.885698020458221436
4.5153045654296875 0.0588481388986110687 0.906040728092193604
4.51710128784179688 0.0630258098244667053 0.905929505825042725
4.49871063232421875 0.0453272871673107147 0.885816574096679688
4.49692106246948242 0.0411817021667957306 0.885935127735137939
4.50078392028808594 0.0459259673953056335 0.889871418476104736
4.49483489990234375 0.0405840873718261719 0.881887912750244141
4.49273824691772461 0.0399846285581588745 0.877846896648406982
4.49662637710571289 0.0447267331182956696 0.881767928600311279
4.49094772338867188 0.0358489565551280975 0.877968251705169678
4.49304628372192383 0.0364454537630081177 0.882007896900177002
4.48916006088256836 0.0317172929644584656 0.878089666366577148
4.48704910278320312 0.0311219543218612671 0.87405771017074585
4.4831395149230957 0.0264031514525413513 0.870156347751617432
4.481353759765625 0.0222854949533939362 0.87028050422668457
4.48526239395141602 0.0269972849637269974 0.874180495738983154
4.48737525939941406 0.0275896303355693817 0.878211021423339844
4.4792180061340332 0.0216926112771034241 0.866264104843139648
4.48347902297973633 0.0228766128420829773 0.874303281307220459
4.49250888824462891 0.0268050897866487503 0.886504232883453369
4.47957134246826172 0.0181718338280916214 0.870404660701751709
4.48685026168823242 0.0179649628698825836 0.882698893547058105
4.48894596099853516 0.0185466762632131577 0.886740624904632568
4.49072599411010742 0.0226738937199115753 0.886622428894042969
4.49459028244018555 0.0273909568786621094 0.890554964542388916
4.48483991622924805 0.0182732213288545609 0.860298454761505127
4.46627950668334961 0.0252593271434307098 0.860001444816589355
4.48521041870117188 0.0147467348724603653 0.86444467306137085
4.4830479621887207 0.0141560425981879234 0.860427021980285645
4.49454975128173828 0.0327270589768886566 0.849561631679534912
4.49093532562255859 0.0244606062769889832 0.849828541278839111
4.48179483413696289 0.0327371545135974884 0.84748232364654541
4.47048187255859375 0.0273065492510795593 0.849732518196105957
4.48125886917114258 0.0100428741425275803 0.860555529594421387
4.48647403717041016 0.0101220225915312767 0.850427925586700439
4.4868617057800293 0.0057085859589278698 0.872954845428466797
4.47332286834716797 0.000660664052702486515 0.852805376052856445
4.47510957717895508 0.00475958734750747681 0.852674007415771484
4.49017667770385742 0.0130285341292619705 0.891119241714477539
4.48243331909179688 0.00364335067570209503 0.883267819881439209
4.48453474044799805 0.00421497737988829613 0.887306809425354004
4.48662567138671875 0.00478489184752106667 0.89135211706161499
4.49581289291381836 0.0218680687248706818 0.894943356513977051
4.48065805435180664 -0.000466542725916951895 0.88338702917098999
4.47888660430908203 -0.00457249023020267487 0.883506238460540771
4.47677087783813477 -0.00513975787907838821 0.879476249217987061
4.47711753845214844 -0.0086745014414191246 0.883625447750091553
4.47499990463256836 -0.00923872459679841995 0.879596889019012451
4.47287178039550781 -0.00980460364371538162 0.875574648380279541
4.4783477783203125 -0.0141949634999036789 0.887988388538360596
4.4878392219543457 -0.000745510158594697714 0.8957328200340271
4.48606777191162109 -0.00486194854602217674 0.895847558975219727
4.48429965972900391 -0.00897446181625127792 0.895962238311767578
4.48253393173217773 -0.0130830584093928337 0.896076858043670654
4.46933603286743164 -0.0179846044629812241 0.875818610191345215
4.47110271453857422 -0.0138965696096420288 0.875696659088134766
4.47323226928710938 -0.0133337583392858505 0.879717469215393066
4.48044633865356445 -0.0136381871998310089 0.892029523849487305
4.46896219253540039 -0.0144610144197940826 0.871682167053222656
4.47481822967529297 -0.0223883446305990219 0.88822329044342041
4.47270584106445312 -0.0229406636208295822 0.884191155433654785
4.4671940803527832 -0.0185459591448307037 0.871805548667907715
4.49551630020141602 0.008634163998067379 0.903630495071411133
4.49374294281005859 0.00450393743813037872 0.903742372989654541
4.4916834831237793 0.00394026096910238266 0.89967721700668335
4.48991107940673828 -0.000183081952854990959 0.899790525436401367
4.49197244644165039 0.000377641496015712619 0.903854310512542725
4.48814153671264648 -0.00430249655619263649 0.899903833866119385
4.49933767318725586 0.0133361313492059708 0.907592594623565674
4.49756336212158203 0.00919904373586177826 0.907703101634979248
4.50137186050415039 0.0139021705836057663 0.911672592163085938
4.50111532211303711 0.0174771621823310852 0.9074820876121521
4.49579143524169922 0.005065887700766325 0.907813608646392822
4.50314760208129883 0.0180460996925830841 0.911563515663146973
4.50516939163208008 0.0186132527887821198 0.915650784969329834
4.47123527526855469 -0.000788142264354974031 0.867095708847045898
4.47326087951660156 -0.0124392071738839149 0.861399054527282715
4.47503948211669922 -0.00834447797387838364 0.8612709641456604
4.4768214225769043 -0.00424577668309211731 0.861142814159393311
4.4688258171081543 -0.0266822278499603271 0.861983537673950195
4.47039461135864258 -0.0217362251132726669 0.843565285205841064
4.45778131484985352 -0.0214907675981521606 0.841521859169006348
4.47812175750732422 -0.0115557843819260597 0.832970976829528809
4.46860933303833008 -0.0258198026567697525 0.843700647354125977
4.46458101272583008 -0.0304675605148077011 0.839853823184967041
4.46636533737182617 -0.0263912156224250793 0.83971703052520752
4.4668269157409668 -0.0298993997275829315 0.843835949897766113
4.46232509613037109 -0.0310372728854417801 0.835878431797027588
4.46678924560546875 -0.01683027483522892 0.835272133350372314
4.46452856063842773 -0.0174125693738460541 0.831300735473632812
4.44431829452514648 -0.0143102305009961128 0.831327378749847412
4.43323898315429688 -0.0195147935301065445 0.833603143692016602
4.50454950332641602 0.00889786053448915482 0.920180678367614746
4.50632333755493164 0.0130451340228319168 0.920074701309204102
4.50277853012084961 0.00475450837984681129 0.920286655426025391
4.52712488174438477 0.086536705493927002 0.909245431423187256
4.52893209457397461 0.0907396748661994934 0.909135282039642334
4.53557729721069336 0.122856520116329193 0.899697542190551758
4.54502677917480469 0.136843621730804443 0.907570481300354004
4.55443239212036133 0.150890856981277466 0.91548389196395874
4.54882097244262695 0.141734734177589417 0.911576926708221436
4.55260229110717773 0.146632984280586243 0.915591955184936523
4.54699420928955078 0.137487739324569702 0.911686420440673828
4.55637168884277344 0.151538297533988953 0.919615566730499268
4.55820226669311523 0.155802905559539795 0.919508874416351318
4.57684803009033203 0.194389790296554565 0.90789794921875
4.57870769500732422 0.198697417974472046 0.907786071300506592
4.55983209609985352 0.192369848489761353 0.897292256355285645
4.55830049514770508 0.152183443307876587 0.923752903938293457
4.56012868881225586 0.156450614333152771 0.923647701740264893
4.56196022033691406 0.160721927881240845 0.923542439937591553
4.56379413604736328 0.164997383952140808 0.923437237739562988
4.46486282348632812 -0.0313212908804416656 0.858111321926116943
4.51471900939941406 0.083851151168346405 0.833241045475006104
4.49255752563476562 0.0916889384388923645 0.828943312168121338
4.51073265075683594 0.0274897664785385132 0.919531404972076416
4.55454397201538086 0.14727783203125 0.919722199440002441
4.51050806045532227 0.0310773421078920364 0.915327727794647217
4.54517078399658203 0.133244872093200684 0.911795854568481445
4.4829096794128418 0.0150101548060774803 0.842088043689727783
4.48471260070800781 0.0191269479691982269 0.84195178747177124
4.47035503387451172 -0.0113499881699681282 0.820855498313903809
4.47215747833251953 -0.00726008089259266853 0.820710539817810059
4.47396278381347656 -0.00316611677408218384 0.820565521717071533
4.46855592727661133 -0.0154358493164181709 0.821000337600708008
4.49901294708251953 0.0471115559339523315 0.848959445953369141
4.47094392776489258 -0.0270284377038478851 0.884310007095336914
4.46918487548828125 -0.0311123132705688477 0.884428858757019043
4.46530055999755859 -0.0357369743287563324 0.88052600622177124
4.47636604309082031 -0.0314704291522502899 0.896747410297393799
4.53029775619506836 0.0816028565168380737 0.917796134948730469
4.51106882095336914 0.0886434614658355713 0.824879288673400879
4.49217462539672852 0.0951764956116676331 0.82482069730758667
4.50832557678222656 0.0136048253625631332 0.924173951148986816
4.50655364990234375 0.00945469178259372711 0.924278557300567627
4.51010036468505859 0.017758883535861969 0.924069404602050781
4.50228404998779297 0.0368492081761360168 0.898446917533874512
4.52849578857421875 0.0774007365107536316 0.91790306568145752
4.48214483261108398 0.00624295277521014214 0.82822948694229126
4.48803234100341797 0.0150808803737163544 0.831935346126556396
4.47615718841552734 0.0104926982894539833 0.815975487232208252
4.47434568405151367 0.00639131199568510056 0.81612241268157959
4.49028348922729492 0.0156875606626272202 0.835932612419128418
4.48847246170043945 0.0115643143653869629 0.836071968078613281
4.49209737777709961 0.0198148880153894424 0.835793197154998779
4.47253704071044922 0.00229401001706719398 0.816269218921661377
4.4999237060546875 0.0301381703466176987 0.825123429298400879
4.47882986068725586 0.0206650514155626297 0.815494537353515625
4.48064613342285156 0.0247771758586168289 0.815347254276275635
4.4783473014831543 0.024152953177690506 0.811384737491607666
4.4888463020324707 0.0342699252068996429 0.823004186153411865
4.486572265625 0.033642742782831192 0.819024801254272461
4.48246526718139648 0.0288934148848056793 0.815199851989746094
4.48839569091796875 0.0377704724669456482 0.818878769874572754
4.45894622802734375 -0.0036200094036757946 0.814676940441131592
4.53099489212036133 0.0410936735570430756 0.832677900791168213
4.49657964706420898 0.0473101437091827393 0.826561093330383301
4.46054267883300781 -0.0351063646376132965 0.836016595363616943
4.46280050277709961 -0.0345399267971515656 0.839990496635437012
4.51251316070556641 0.0316512584686279297 0.919425129890441895
4.46309232711791992 -0.0353945232927799225 0.858240425586700439
4.51287698745727539 0.0796708837151527405 0.833381950855255127
4.50881242752075195 0.0748436078429222107 0.829511165618896484
4.51103782653808594 0.0754947960376739502 0.83352285623550415
4.5028996467590332 0.065863288938999176 0.825793743133544922
4.48918819427490234 0.0596342235803604126 0.824152469635009766
4.50473642349243164 0.0700247883796691895 0.825650036334991455
4.49505376815795898 0.0554699152708053589 0.836458683013916016
4.50622892379760742 0.0618457943201065063 0.815722942352294922
4.50438547134399414 0.057685069739818573 0.815871298313140869
4.50016355514526367 0.0659783408045768738 0.803435266017913818
4.50765228271484375 0.0536452718079090118 0.805785775184631348
4.50289058685302734 0.0527274198830127716 0.834422826766967773
4.49544620513916016 0.0519569441676139832 0.840599417686462402
4.50567865371704102 0.0626034662127494812 0.797330915927886963
4.50382375717163086 0.0584434643387794495 0.797487378120422363
4.49962663650512695 0.0536310747265815735 0.793676316738128662
4.51813077926635742 0.090266011655330658 0.800191760063171387
4.52043962478637695 0.0909459739923477173 0.804184079170227051
4.50728511810302734 0.0639906078577041626 0.782927513122558594
4.50347518920898438 0.0488370358943939209 0.801956892013549805
4.49150705337524414 0.0535904578864574432 0.781641721725463867
4.48965644836425781 0.0494538918137550354 0.781804263591766357
4.5260930061340332 0.0903640761971473694 0.812380492687225342
4.49743986129760742 0.0398929454386234283 0.798294126987457275
4.47976016998291016 0.0385394878685474396 0.788556933403015137
4.49603843688964844 0.0679582357406616211 0.780977129936218262
4.51031684875488281 0.0141627425327897072 0.928278982639312744
4.51208972930908203 0.0183196365833282471 0.928175806999206543
4.51584243774414062 0.0230422243475914001 0.932186245918273926
4.51143646240234375 0.00857242289930582047 0.932720005512237549
4.51386594772338867 0.0224804561585187912 0.928072631359100342
4.51761913299560547 0.0272097829729318619 0.932084441184997559
4.51564455032348633 0.0266452115029096603 0.927969455718994141
4.51517915725708008 0.0132830850780010223 0.936736702919006348
4.51713800430297852 0.013834645040333271 0.940860450267791748
4.52068567276000977 0.0221722330898046494 0.940663158893585205
4.51891040802001953 0.0180014818906784058 0.940761804580688477
4.51340818405151367 0.00912295188754796982 0.936836719512939453
4.51695346832275391 0.0174471307545900345 0.936636626720428467
4.51536893844604492 0.00967171415686607361 0.940959155559539795
4.51163959503173828 0.00496672187000513077 0.936936855316162109
4.52085638046264648 0.0185540281236171722 0.944892585277557373
4.52262973785400391 0.0227275453507900238 0.944795310497283936
4.52440547943115234 0.0269049797207117081 0.944698035717010498
4.526336669921875 0.0274612102657556534 0.948837161064147949
4.52193260192871094 0.0129370167851448059 0.949359536170959473
4.52016210556030273 0.00876702554523944855 0.949455082416534424
